# .PCD v0.7 - Point Cloud Data file format
VERSION 0.7
FIELDS x y z
SIZE 4 4 4
TYPE F F F
COUNT 1 1 1
WIDTH 1338
HEIGHT 1
VIEWPOINT 0 0 0 1 0 0 0
POINTS 1338
DATA ascii
-0.21573161 0.11836247 0.35900006
-0.21865313 0.12122027 0.35857144
-0.21750428 0.1203884 0.35900003
-0.21909714 0.12300216 0.3585
-0.2190975 0.12439287 0.3585
-0.21841364 0.12687156 0.35800001
-0.21866618 0.12889183 0.35800001
-0.21978346 0.13102455 0.35900003
-0.21826401 0.13330373 0.35900003
-0.21750428 0.13330373 0.35900003
-0.21826401 0.13406345 0.35900003
-0.014739313 -0.046247635 0.36100003
-0.012944899 -0.046714239 0.36066672
-0.01089936 -0.046925474 0.36033338
-0.0089929923 -0.046925481 0.36033338
-0.0071925092 -0.046900082 0.36087504
-0.014739313 -0.045101695 0.36100003
-0.0131748 -0.044976763 0.36000001
-0.010889277 -0.044976763 0.36000001
-0.0089846738 -0.044976763 0.36000001
-0.0070924768 -0.045060053 0.36066672
-0.014739314 -0.043191802 0.36100003
-0.013179102 -0.043085221 0.36011115
-0.010889277 -0.04307216 0.36000004
-0.0089846738 -0.04307216 0.36000001
-0.0073148999 -0.043283544 0.36085719
-0.012988199 -0.04099258 0.36085719
-0.010902486 -0.040836282 0.36044449
-0.009005296 -0.040880695 0.36083338
-0.0078636957 -0.041281909 0.36100003
-0.012447441 -0.039372016 0.36100003
-0.010919525 -0.039372019 0.36100003
-0.21582462 0.11539085 0.36000001
-0.21499573 0.11673971 0.36040005
-0.21696737 0.1199619 0.36000001
-0.21528627 0.11894198 0.36037505
-0.21811014 0.12148558 0.36000001
-0.21709982 0.12138332 0.36060002
-0.215268 0.12123054 0.36060005
-0.21830061 0.12319972 0.36000001
-0.21769738 0.12284166 0.36100003
-0.21489622 0.122587 0.36100003
-0.21871963 0.12499006 0.36000001
-0.21776107 0.12487888 0.36100003
-0.22024392 0.12640679 0.36100003
-0.21871601 0.12640679 0.36100003
-0.21795204 0.12640679 0.36100003
-0.21947996 0.12946263 0.36100003
-0.21947996 0.13099055 0.36100003
-0.22039565 0.1329132 0.36000001
-0.21937987 0.13316715 0.36000001
-0.21963382 0.13481781 0.36000001
-0.014820972 -0.048040234 0.36300001
-0.012900497 -0.048808426 0.36300001
-0.010765289 -0.048899628 0.36225
-0.0090470677 -0.049125291 0.36250001
-0.007129238 -0.049125291 0.36250004
-0.0047247596 -0.049027909 0.36300001
-0.0032981208 -0.04842433 0.36300001
-0.016357353 -0.046503853 0.36300001
-0.014788732 -0.047167864 0.36219999
-0.013247996 -0.047907893 0.36200002
-0.0063533303 -0.047907893 0.36200002
-0.0049197427 -0.047078352 0.36225
-0.0032981208 -0.046887949 0.36300001
-0.016357353 -0.044967473 0.36300001
-0.015546217 -0.044843599 0.36200005
-0.0048249164 -0.04488489 0.36233336
-0.0032981208 -0.045351569 0.36300001
-0.016357353 -0.043047 0.36300001
-0.015546217 -0.042928413 0.36200002
-0.0063533303 -0.042928413 0.36200002
-0.0049819653 -0.043076385 0.36260003
-0.014666427 -0.041050993 0.36233336
-0.0069055408 -0.040935859 0.36228573
-0.0053466279 -0.041638654 0.36300001
-0.014052782 -0.03920605 0.36300001
-0.013065626 -0.038741216 0.36225
-0.010949774 -0.038715005 0.36200005
-0.0089627616 -0.038889188 0.36220002
-0.007391504 -0.039059844 0.36283335
-0.012499161 -0.037617251 0.36250001
-0.010969939 -0.037250631 0.36266667
-0.0092450902 -0.037259363 0.36275002
-0.21510845 0.11947924 0.36200002
-0.21395934 0.1190962 0.36200002
-0.21516977 0.12049418 0.36274999
-0.21687043 0.12338622 0.36200002
-0.21697733 0.12506707 0.36277777
-0.21531859 0.12441844 0.36300001
-0.22008793 0.12713999 0.36200002
-0.21954364 0.1278753 0.36300001
-0.21755064 0.12699004 0.3626667
-0.22069591 0.12902758 0.36300001
-0.21992773 0.12902758 0.36300001
-0.21962479 0.13076663 0.36250001
-0.22059864 0.13263017 0.36200005
-0.21972577 0.13312957 0.3626667
-0.22008793 0.13594984 0.36200002
-0.21908976 0.13489303 0.36225
-0.010268096 -0.050622188 0.36500001
-0.0091094617 -0.050622188 0.36500001
-0.0069705495 -0.050711274 0.36425
-0.0048544779 -0.050939053 0.36450002
-0.0029260672 -0.050939053 0.36450002
-0.0011535091 -0.050931156 0.36500001
-0.01670495 -0.048562393 0.36500001
-0.014882216 -0.049139202 0.36450005
-0.012954335 -0.049781479 0.36450002
-0.011395423 -0.049713191 0.36400002
-0.0027294769 -0.049135461 0.36400002
-0.0009974069 -0.049032524 0.3646667
-0.018764742 -0.046760075 0.36500001
-0.017346499 -0.047145814 0.36440006
-0.0025369003 -0.04701712 0.36400002
-0.0009974069 -0.047103234 0.3646667
-0.018764742 -0.045987651 0.36500001
-0.017582521 -0.04515329 0.36450005
-0.0027294769 -0.044898774 0.36400002
-0.0012183301 -0.045289882 0.36471432
-0.017201452 -0.042850953 0.36460003
-0.0040775128 -0.042395279 0.36400002
-0.002925891 -0.042838491 0.36450002
-0.0017714471 -0.043284174 0.36500001
-0.016447475 -0.041353118 0.36500001
-0.015632108 -0.04085467 0.36400002
-0.004695998 -0.040799875 0.36420003
-0.0033162923 -0.040966906 0.36500001
-0.014878556 -0.038971681 0.36440006
-0.0066452008 -0.038415365 0.36400002
-0.0049521667 -0.039091766 0.36462504
-0.014110852 -0.037053436 0.36450002
-0.013064421 -0.036874752 0.36400002
-0.008699351 -0.036617983 0.36400002
-0.0071616638 -0.037019905 0.36416671
-0.0053760856 -0.037233531 0.36500001
-0.012887436 -0.035308521 0.36480004
-0.011020352 -0.035108786 0.36433336
-0.0090928236 -0.035108786 0.36433336
-0.0072722347 -0.03525798 0.36487502
-0.00563356 -0.035946161 0.36500001
-0.010847413 -0.033435784 0.36500001
-0.0092381984 -0.033371419 0.36500001
-0.0079508275 -0.033628892 0.36500001
-0.21591175 0.12283542 0.36400002
-0.21559523 0.12577449 0.36433336
-0.21693882 0.12720048 0.36400002
-0.21567434 0.12715964 0.36425
-0.21896416 0.12931371 0.36416671
-0.21700338 0.12881836 0.36480004
-0.21547501 0.12883732 0.36500001
-0.22042255 0.13129181 0.3646667
-0.21895091 0.13102585 0.36500001
-0.21727733 0.13012469 0.36500001
-0.22036703 0.13282818 0.36500001
-0.21920839 0.13244195 0.36500001
-0.21976328 0.13593063 0.36400002
-0.22191188 0.13784891 0.36500001
-0.21976328 0.13670093 0.36400002
-0.0068294108 -0.052452881 0.36700001
-0.0046836217 -0.052539852 0.36625004
-0.0029421225 -0.052769747 0.36650002
-0.0010031303 -0.052769747 0.36650002
0.00093713868 -0.052841209 0.36700001
0.0023610063 -0.052711766 0.36700004
-0.018479235 -0.050122917 0.36700001
-0.016925927 -0.050511241 0.36700001
-0.014984287 -0.050899573 0.36700004
-0.013007112 -0.05076088 0.36600003
-0.011243822 -0.051310088 0.36660004
-0.0091474261 -0.051605821 0.36650002
-0.0075853416 -0.051535416 0.36600003
-0.00022722293 -0.051535416 0.36600003
0.00093458523 -0.051148146 0.36600003
0.002975858 -0.050996646 0.36700004
-0.020420874 -0.048569605 0.36700001
-0.018842563 -0.04889141 0.36650002
-0.016879806 -0.04959907 0.36600003
-0.015717998 -0.04998634 0.36600003
0.00093458523 -0.0492118 0.36600003
0.002765371 -0.049066737 0.36657146
-0.020420875 -0.047016293 0.36700004
-0.019397058 -0.047081817 0.36600003
0.00093458523 -0.046888184 0.36600003
0.0024127834 -0.047171626 0.36700001
-0.020420874 -0.045462985 0.36700001
-0.019216806 -0.044982277 0.36625004
-0.00022722293 -0.044951838 0.36600003
0.00093676487 -0.045043688 0.36675
0.0021021212 -0.045462985 0.36700001
-0.018682232 -0.043217834 0.36640003
-0.00078064232 -0.042938121 0.36628574
0.00054881122 -0.043521348 0.36700001
-0.018090909 -0.041579712 0.36700001
-0.01709703 -0.040746935 0.36650002
-0.0025508394 -0.041079145 0.36600003
-0.0012617661 -0.041024528 0.36666667
-0.016515069 -0.039583541 0.36650002
-0.015739471 -0.038807943 0.36650002
-0.0040999171 -0.038368259 0.36600003
-0.0029404319 -0.039178096 0.36633337
-0.0017811538 -0.038861416 0.36700001
-0.014960214 -0.036859419 0.3664
-0.0044119731 -0.036683973 0.36620006
-0.0030238018 -0.037075114 0.36700001
-0.014188277 -0.034929957 0.36650002
-0.013394382 -0.034495566 0.36600003
-0.0064235334 -0.034495566 0.36600003
-0.0048804097 -0.034930311 0.36650002
-0.012958089 -0.033173408 0.36680001
-0.011225673 -0.032481764 0.36600003
-0.0090053286 -0.032430127 0.36600003
-0.0071059065 -0.032871645 0.36625001
-0.005353767 -0.033191834 0.36700001
-0.010940055 -0.031155372 0.36680004
-0.0091468971 -0.031051975 0.36650002
-0.0073730699 -0.031172529 0.36700001
-0.010324359 -0.029929884 0.36700001
-0.0091593768 -0.029929884 0.36700001
-0.0079943938 -0.029929884 0.36700001
-0.21645868 0.12502834 0.36666667
-0.21545514 0.12561753 0.36650002
-0.21497025 0.12687801 0.36650005
-0.21380797 0.12773108 0.36700001
-0.21516496 0.12890808 0.36666667
-0.21380797 0.12889606 0.36700001
-0.21864717 0.1304812 0.36600003
-0.2170618 0.13101764 0.36620006
-0.21531902 0.13077872 0.36640003
-0.22019625 0.13357936 0.36600003
-0.21868099 0.13307098 0.36642858
-0.21769124 0.13239101 0.36700001
-0.21536128 0.13239101 0.36700001
-0.22040148 0.1348848 0.36660001
-0.21885622 0.13510931 0.36700001
-0.21769124 0.13472097 0.36700001
-0.22059733 0.13692646 0.36666667
-0.22235116 0.13860425 0.36700001
-0.22118619 0.13860425 0.36700001
-0.0010127099 -0.056013666 0.37
0.0005532974 -0.056013662 0.37
-0.0080597429 -0.054447655 0.37
-0.0068852371 -0.054447655 0.37
-0.0047631371 -0.054672565 0.36939999
-0.0029604491 -0.054654688 0.36875004
-0.0010086044 -0.054617371 0.36849999
0.00093969225 -0.054542735 0.36800003
0.0028925552 -0.054642245 0.36866671
0.0048532505 -0.054765582 0.36950001
0.0068146084 -0.054814633 0.36983332
0.0083833346 -0.054447655 0.37
-0.020587802 -0.052098643 0.37
-0.019021794 -0.052490145 0.37
-0.017064285 -0.052881647 0.37
-0.015093873 -0.052834004 0.36966667
-0.012995075 -0.05304737 0.36933336
-0.011171946 -0.053177863 0.36933336
-0.0088112345 -0.053081881 0.36866671
-0.0068578534 -0.053447094 0.36850002
-0.0052904775 -0.053374574 0.36800003
0.003405801 -0.053114988 0.36800003
0.0048370967 -0.053021446 0.36825001
0.0069192611 -0.053023089 0.36942858
0.0086965365 -0.053038247 0.37
-0.022414809 -0.05079364 0.37
-0.020923132 -0.050787035 0.36900002
-0.018944681 -0.051238112 0.36850005
-0.017132588 -0.051651314 0.36866671
-0.015025118 -0.051817037 0.36800003
-0.01307819 -0.051817033 0.36800003
0.0048335483 -0.051038262 0.36800003
0.0067064259 -0.051113751 0.36925
0.0083833346 -0.051315639 0.37
-0.023004221 -0.048998334 0.36949998
-0.020995697 -0.049221128 0.36800003
0.0049171029 -0.048910215 0.36840001
0.0065889517 -0.049040373 0.36971429
-0.022625564 -0.047163017 0.36916667
-0.02125529 -0.047144406 0.36800003
0.0034706986 -0.046949714 0.36800003
0.0047690175 -0.04711549 0.36900002
0.0060343235 -0.047009122 0.37
-0.022394851 -0.045532327 0.36966667
-0.020978436 -0.04472455 0.36860004
0.0013290779 -0.044029322 0.36800003
0.0029899275 -0.044786315 0.36862499
0.0046610478 -0.045216393 0.36974999
-0.020830255 -0.043185428 0.36966667
-0.019455997 -0.042769842 0.36833334
0.0010694875 -0.042731371 0.36800003
0.0027418479 -0.043102305 0.36939999
-0.018970991 -0.041024815 0.36900005
-0.00048805503 -0.040395059 0.36800003
0.0009425985 -0.041024711 0.36900002
0.0023150556 -0.041332342 0.37
-0.01823879 -0.039570585 0.37
-0.017202122 -0.038655486 0.36875001
-0.00061816064 -0.039020251 0.36850002
0.00086619984 -0.038922794 0.3698
-0.016642742 -0.037153807 0.36933336
-0.015803888 -0.036630996 0.36800003
-0.0025647783 -0.03624161 0.36800003
-0.0010081889 -0.037098151 0.36877775
0.0005532974 -0.037221573 0.37
-0.01545692 -0.035168231 0.36900002
-0.0029559063 -0.035097014 0.36825001
-0.0012346477 -0.034943428 0.36957142
-0.014605581 -0.033389874 0.36920002
-0.013467575 -0.03234775 0.36800003
-0.0043170135 -0.032931831 0.36800003
-0.0029618386 -0.033215836 0.36900002
-0.0017957136 -0.032915056 0.37
-0.014323773 -0.03174055 0.37
-0.013108335 -0.030859228 0.36883339
-0.011650442 -0.030271027 0.36800003
-0.0067182248 -0.030271027 0.36800003
-0.0049107452 -0.030854577 0.36877775
-0.0030467024 -0.031096993 0.3698
-0.012757765 -0.02939154 0.37
-0.011157173 -0.028908065 0.36883336
-0.0087949485 -0.028843282 0.36800003
-0.0068617123 -0.028901801 0.36875004
-0.0050781555 -0.029046986 0.36960003
-0.011029531 -0.027497292 0.3698
-0.0088268146 -0.0269931 0.36933333
-0.0069596046 -0.027184088 0.3698
-0.0054497309 -0.027564531 0.37
-0.21672748 0.12491317 0.36900002
-0.21555871 0.12535343 0.36800003
-0.21439056 0.12691097 0.36800003
-0.21477272 0.12877521 0.37
-0.21325164 0.12929255 0.36849999
-0.21477996 0.13119422 0.36800003
-0.21312147 0.13098273 0.36849999
-0.21828441 0.13353053 0.36800003
-0.21711627 0.13314113 0.36800003
-0.21485122 0.1332695 0.36862502
-0.21330903 0.13290188 0.36950001
-0.21822183 0.13521042 0.36833334
-0.2170414 0.13491362 0.36880001
-0.21547845 0.13520603 0.3696
-0.21359822 0.13464773 0.37
-0.22056028 0.13728926 0.36833334
-0.21867779 0.13702624 0.36849999
-0.21692543 0.13687333 0.36966667
-0.21555571 0.13699675 0.37
-0.22295706 0.1397607 0.36800003
-0.22083195 0.13924378 0.36928573
-0.21907923 0.13934575 0.37
-0.21727835 0.13848446 0.37
-0.21555571 0.13817126 0.37
-0.2225868 0.14111659 0.36900002
-0.22083691 0.14078481 0.36966667
-0.21947074 0.14052026 0.37
-0.22142825 0.14208627 0.37
-0.0041559264 -0.056165051 0.37100002
-0.0029782467 -0.056165051 0.37100002
-0.00023032707 -0.056950171 0.37100002
0.0036952724 -0.056165051 0.37100002
0.0048729521 -0.056165051 0.37100002
0.0068357522 -0.056165051 0.37100002
0.0087985527 -0.056165051 0.37100002
-0.010829445 -0.054594811 0.37100002
-0.0092592053 -0.054594811 0.37100002
-0.0069038463 -0.055379931 0.37100002
-0.0057261665 -0.055379931 0.37100002
0.0093481364 -0.055065881 0.37100002
-0.022213684 -0.052239452 0.37100002
-0.021036005 -0.052632011 0.37100002
-0.019465765 -0.053024571 0.37100002
-0.015147604 -0.053809695 0.37100002
-0.013577365 -0.053809691 0.37100002
0.0097799525 -0.052828293 0.37100002
-0.024569044 -0.050669212 0.37100002
-0.023522219 -0.051192626 0.37100002
0.0093481364 -0.050983258 0.37100002
-0.024569046 -0.049098976 0.37100002
0.007620872 -0.048706412 0.37100002
0.0084059918 -0.049491532 0.37100002
-0.024569044 -0.047528733 0.37100002
-0.023783924 -0.046743613 0.37100002
0.0070974594 -0.047267027 0.37100002
-0.022606244 -0.044780813 0.37100002
0.005265512 -0.044780813 0.37100002
0.0060506319 -0.045565933 0.37100002
-0.022213684 -0.043603133 0.37100002
-0.021036005 -0.042425454 0.37100002
0.0036952724 -0.042425454 0.37100002
0.004742099 -0.043341428 0.37100002
-0.019858325 -0.040462654 0.37100002
0.0031718593 -0.040986069 0.37100002
-0.018549792 -0.038892414 0.37100002
0.0013399126 -0.038107295 0.37100002
0.0023213127 -0.039088693 0.37100002
-0.017502965 -0.036929615 0.37100002
0.0010782061 -0.03679876 0.37100002
-0.016717844 -0.035359375 0.37100002
-0.015932724 -0.034181695 0.37100002
-0.00023032707 -0.034574255 0.37100002
0.00055479282 -0.035359375 0.37100002
-0.015147605 -0.032611456 0.37100002
-0.00075374031 -0.03313487 0.37100002
-0.014362485 -0.030648656 0.37100002
-0.0025856867 -0.030256096 0.37100002
-0.0015388604 -0.031564631 0.37100002
-0.013184804 -0.029078417 0.37100002
-0.0041559264 -0.028685857 0.37100002
-0.0031091 -0.029209271 0.37100002
-0.012399685 -0.027508177 0.37100002
-0.010829445 -0.026330497 0.37100002
-0.0065112864 -0.026330497 0.37100002
-0.0047840225 -0.026958594 0.37100002
-0.010436885 -0.025545377 0.37100002
-0.0088666454 -0.025152816 0.37100002
-0.0070346999 -0.02528367 0.37100002
-0.0057261665 -0.025545377 0.37100002
-0.21535318 0.12833813 0.37100002
-0.21299781 0.13304883 0.37100002
-0.21299781 0.13501164 0.37100002
-0.21515688 0.13677818 0.37100002
-0.21325952 0.13645104 0.37100002
-0.21653086 0.13932981 0.37100002
-0.21535318 0.13893723 0.37100002
-0.22006389 0.14168516 0.37100002
-0.21888621 0.14090005 0.37100002
-0.21692342 0.14011493 0.37100002
-0.22084901 0.14286284 0.37100002
-0.21927877 0.14247029 0.37100002
0.0072672786 -0.058046535 0.37300003
0.0088459831 -0.058046535 0.37300003
0.010424688 -0.058046535 0.37300003
-0.0085197687 -0.056467827 0.37300003
-0.0069322884 -0.056392133 0.3725
-0.0049604946 -0.056786809 0.3725
-0.0029862742 -0.057103675 0.37200001
-0.0014118021 -0.057103675 0.37200001
0.0013435243 -0.056316439 0.37200001
0.0029224479 -0.056786809 0.37250003
0.004886087 -0.057103675 0.37200001
0.0068541775 -0.057103675 0.37200004
0.0088222679 -0.057103675 0.37200001
0.010805566 -0.056786459 0.37250003
0.012661187 -0.056730948 0.37300003
-0.022333436 -0.054099772 0.37300003
-0.021149408 -0.054099772 0.37300003
-0.018386673 -0.054889124 0.37300003
-0.01680797 -0.054889124 0.37300003
-0.01481523 -0.054815546 0.3725
-0.012682648 -0.055116571 0.37240002
-0.010887826 -0.055678476 0.37300003
-0.008890545 -0.055529203 0.37200004
0.011183976 -0.055135585 0.37200001
0.012792746 -0.054889128 0.37300003
-0.024964612 -0.052784186 0.37300003
-0.023243463 -0.052909773 0.37240002
-0.021486323 -0.053167496 0.37200001
-0.019124616 -0.053954732 0.37200004
-0.017156525 -0.053954732 0.37200001
0.011183976 -0.0531675 0.37200004
0.012792745 -0.052915741 0.37300003
-0.026280198 -0.050942361 0.37300003
-0.025242781 -0.051037267 0.37224999
0.0092158858 -0.050018549 0.37200001
0.011024175 -0.050732043 0.37228572
0.012398069 -0.051337037 0.37300003
-0.026280196 -0.048968982 0.37300003
-0.025422504 -0.048837695 0.37200001
0.0089617316 -0.048749901 0.37233335
0.010030012 -0.048968982 0.37300003
-0.026280196 -0.047784954 0.37300003
-0.025062528 -0.046932071 0.3725
-0.023848031 -0.04608237 0.37200001
0.0073790019 -0.046344783 0.37200004
0.0087625161 -0.04712785 0.37280002
-0.023606991 -0.044810191 0.37233335
0.0070198411 -0.044871073 0.37240002
-0.022713143 -0.043019988 0.37275001
-0.021486323 -0.042146191 0.37200001
0.0050172932 -0.042408608 0.37200004
0.0063957288 -0.043183204 0.37280002
-0.020980753 -0.041133605 0.37233335
0.0037052326 -0.040571716 0.37200001
0.0048931837 -0.041020397 0.3725
0.00608325 -0.041470133 0.37300003
-0.02075473 -0.039891429 0.37300003
-0.019544467 -0.039049134 0.3725
0.0033923301 -0.038860343 0.37220001
0.0047018835 -0.039299414 0.37300003
-0.01863336 -0.037226722 0.37266669
0.0029226241 -0.037078749 0.37250003
-0.018386673 -0.035944667 0.37300003
-0.017376922 -0.03491085 0.37250003
0.0011467154 -0.034864258 0.37200001
0.0024510836 -0.035293914 0.37280002
-0.016807968 -0.033576611 0.37300003
-0.015975671 -0.033092976 0.37200001
-0.0002309479 -0.032699358 0.37200001
0.00095208595 -0.033159431 0.37275001
-0.016018616 -0.031997904 0.37300003
-0.015202045 -0.031152068 0.37233338
-0.00075597892 -0.030890008 0.37233338
0.00055778364 -0.031603228 0.37300003
-0.014420554 -0.029195454 0.3725
-0.01363226 -0.02840716 0.3725
-0.0025926563 -0.028763175 0.37200001
-0.0012450637 -0.028930867 0.37271434
-0.012844495 -0.026831102 0.3725
-0.0041671284 -0.026401468 0.37200001
-0.0029885974 -0.027212715 0.37233335
-0.0018102734 -0.026867116 0.37300003
-0.012071854 -0.02528841 0.37300003
-0.010955085 -0.024708746 0.37260005
-0.008890545 -0.024039758 0.37200004
-0.0067912489 -0.02430217 0.37200004
-0.0048604254 -0.02475309 0.37237501
-0.0031916401 -0.025091074 0.37300003
-0.010493149 -0.023315029 0.37300003
-0.008906832 -0.022899516 0.37266669
-0.006931759 -0.0228891 0.3725
-0.0051255538 -0.022999289 0.37300003
-0.0085197687 -0.021736326 0.37300003
-0.0069410633 -0.021736326 0.37300003
-0.21855776 0.12527269 0.37200004
-0.21346432 0.13358678 0.3725
-0.21316604 0.13522314 0.37266669
-0.21475279 0.13734365 0.37200001
-0.21278471 0.13695003 0.37200001
-0.21497761 0.13874367 0.37280002
-0.21296203 0.1385022 0.37300003
-0.21848749 0.14165962 0.37300003
-0.21672088 0.14127982 0.37200001
-0.21569264 0.14080112 0.37240002
-0.22459325 0.14285429 0.37200001
-0.22065707 0.14364153 0.37200001
-0.219147 0.14298195 0.37233335
-0.21572475 0.14244896 0.37300003
-0.22052626 0.14495073 0.37266669
-0.21914528 0.14455391 0.37300003
-0.0065814885 -0.058357775 0.37500003
-0.0049905851 -0.058305901 0.37466669
-0.0030023297 -0.058202155 0.37400001
0.0029382086 -0.058305901 0.37466669
0.0049123559 -0.058202155 0.37400001
0.0067069796 -0.058914058 0.37475002
0.0088934153 -0.059151359 0.37500003
0.011067992 -0.058914058 0.37475002
0.01284419 -0.058676757 0.37450001
0.014686584 -0.058675207 0.37500003
-0.014517337 -0.056770604 0.37500003
-0.012930169 -0.056770604 0.37500006
-0.010917016 -0.056619216 0.37400001
-0.0091541354 -0.057327945 0.37475002
-0.0069596726 -0.057410687 0.37400001
-0.0057724696 -0.057410687 0.37400001
0.00095501333 -0.057410687 0.37400001
0.0021422161 -0.057410687 0.37400001
0.013222776 -0.057410687 0.37400001
0.014826214 -0.057091352 0.37450001
0.01643247 -0.057167396 0.37500003
-0.02483394 -0.054654382 0.37500006
-0.023215245 -0.054714125 0.37450004
-0.020810373 -0.055036284 0.37400001
-0.018997181 -0.055663444 0.37466669
-0.016868755 -0.055877507 0.37433338
-0.014874359 -0.055827748 0.37400001
-0.013687155 -0.055827748 0.37400001
0.014819616 -0.055085331 0.37433335
0.01643247 -0.055580229 0.37500003
-0.028008278 -0.05240589 0.37500003
-0.026800286 -0.053164274 0.37475002
-0.025559185 -0.053453341 0.37400001
0.014834594 -0.052988891 0.37471431
-0.028008278 -0.050818719 0.37500003
-0.027142121 -0.051078938 0.37400001
0.013033748 -0.050914682 0.37425005
0.014039226 -0.051169284 0.37466669
-0.028008278 -0.049231552 0.37500003
-0.027166313 -0.048747238 0.37433338
0.011259313 -0.048768938 0.37450004
0.01285303 -0.049198464 0.37475002
-0.026385881 -0.046787798 0.37450004
-0.025559185 -0.046330124 0.37400001
0.0092654331 -0.046330124 0.37400001
0.01039047 -0.047038056 0.37460002
-0.024999224 -0.045004882 0.37450004
0.0089587551 -0.044952918 0.37439999
0.010083792 -0.045263626 0.37500003
-0.024040354 -0.042882871 0.37500003
-0.023580514 -0.043164253 0.37400001
0.0074846288 -0.042966384 0.37400001
0.0086836899 -0.043221429 0.37450004
-0.022697754 -0.041390907 0.37466669
-0.021601841 -0.040789846 0.37400001
0.0071256631 -0.040835988 0.37442863
0.0084966226 -0.041692495 0.37500003
-0.020991346 -0.039090123 0.37440005
0.0053080902 -0.038811173 0.37400001
0.0064267786 -0.039110668 0.37460002
-0.020045668 -0.037277479 0.37450004
-0.01925314 -0.036484953 0.37450004
0.0037251532 -0.036041033 0.37400001
0.004917087 -0.036864981 0.37433338
0.0061158682 -0.037327778 0.37500003
-0.018733358 -0.03504787 0.37466669
0.0034646504 -0.034752633 0.37433338
0.0045286985 -0.034947023 0.37500003
-0.018485259 -0.033756647 0.37500003
-0.017260559 -0.032897137 0.37425005
0.0013507477 -0.03208369 0.37400001
0.0028392021 -0.033018045 0.37450004
-0.016340405 -0.03105629 0.37433338
0.0010881287 -0.030791763 0.37433338
0.0021479439 -0.030979101 0.37500003
-0.016104506 -0.029788723 0.37500003
-0.015082432 -0.028738752 0.37425005
-0.00023218956 -0.028522082 0.37400001
0.00095731759 -0.0289819 0.37483335
-0.01449798 -0.026974631 0.37450004
-0.013687155 -0.02654341 0.37400001
-0.000628079 -0.026956888 0.37424999
0.00056077441 -0.027011175 0.37500003
-0.013045545 -0.024993844 0.37450004
-0.0026065954 -0.024564739 0.37400001
-0.0011240379 -0.025100855 0.37462503
-0.012136583 -0.023043253 0.37500003
-0.011048928 -0.022849893 0.37400001
-0.0041895327 -0.022586068 0.37400001
-0.0030040722 -0.022996901 0.37425005
-0.0015554519 -0.023175515 0.37500006
-0.010740776 -0.021243118 0.37475002
-0.0090551274 -0.020784719 0.37414292
-0.006959673 -0.020607397 0.37400001
-0.0049849697 -0.021021377 0.37433335
-0.0030897157 -0.021218007 0.37500003
-0.0088035269 -0.019154686 0.37500003
-0.0069782813 -0.019075327 0.37500003
-0.0051530362 -0.019154686 0.37500003
-0.0069782808 -0.017884951 0.37500003
-0.21317807 0.13699636 0.37500006
-0.21472017 0.13966499 0.37400001
-0.21359102 0.13926041 0.37433338
-0.21499288 0.14100687 0.37420002
-0.21356413 0.14093652 0.37475002
-0.21867752 0.14322659 0.37400001
-0.21749032 0.14322659 0.37400001
-0.21522252 0.14258428 0.37460002
-0.22263487 0.14520527 0.37400001
-0.22105193 0.14599673 0.37400001
-0.21883726 0.14539871 0.37450004
-0.21688147 0.14440313 0.37500003
-0.2200558 0.14718069 0.37500003
-0.21873318 0.14691615 0.37500006
0.0053506684 -0.060264651 0.377
0.006946303 -0.060264654 0.37700003
0.0089408467 -0.060264651 0.377
0.010915346 -0.060158085 0.37633336
0.012912784 -0.060583636 0.37650001
0.015021484 -0.060766015 0.37657145
0.016830474 -0.060870934 0.3768
0.018381685 -0.060530588 0.37700003
-0.010605676 -0.058669019 0.377
-0.0090027805 -0.058617145 0.37666667
-0.0071419133 -0.059149023 0.37666667
-0.0050127823 -0.059361678 0.37633336
-0.00103075 -0.05856527 0.37633336
0.00096139708 -0.058990113 0.37650001
0.0029512825 -0.059361678 0.37633336
0.0049386257 -0.059309099 0.37600002
0.015680589 -0.059309099 0.37600002
0.016874142 -0.058911249 0.37600002
0.018913563 -0.059067931 0.37700003
-0.024567477 -0.056275565 0.377
-0.022941906 -0.056200929 0.37650001
-0.020784352 -0.056505132 0.37640002
-0.018982757 -0.057073385 0.377
-0.016754963 -0.057159297 0.37625
-0.015113031 -0.057554804 0.37666667
-0.01298834 -0.057820033 0.37666667
-0.010975396 -0.057717696 0.37600002
0.017271992 -0.056921996 0.37600002
0.018671885 -0.0571438 0.37671429
-0.028556563 -0.05467993 0.377
-0.026925173 -0.055006318 0.37650001
-0.025298014 -0.055330593 0.37600002
0.017006759 -0.054800123 0.37600002
0.018514656 -0.055078842 0.377
-0.029050395 -0.053013891 0.37650001
0.015680589 -0.052147787 0.37600002
0.016896758 -0.053013191 0.37650001
0.018115746 -0.053882115 0.377
-0.029315978 -0.051021997 0.37650001
0.015293165 -0.050987851 0.37625
0.016520111 -0.051488664 0.377
-0.028925175 -0.049043123 0.3766
0.012895635 -0.048169281 0.37600002
0.014680469 -0.049153373 0.37657145
-0.028157655 -0.047499575 0.377
-0.027323551 -0.047037669 0.37650001
0.011702084 -0.046975732 0.37600002
0.012921624 -0.04706917 0.37674999
0.014126658 -0.047499575 0.377
-0.026526794 -0.045444153 0.37650001
-0.025730034 -0.044647396 0.37650001
0.011142618 -0.044906691 0.37628573
0.012531024 -0.045505032 0.377
-0.025210252 -0.043206081 0.37666667
0.0093149804 -0.042599376 0.37600002
0.01076507 -0.043145619 0.3766
-0.024136517 -0.041460358 0.37650001
-0.023064192 -0.040513158 0.37633336
0.0090016555 -0.040870227 0.37620005
0.010337027 -0.041316491 0.377
-0.022542998 -0.039070077 0.37650001
-0.02171736 -0.038620871 0.37600002
0.0077235792 -0.03901872 0.37600002
0.0089351824 -0.039096288 0.37675002
-0.021082802 -0.037078712 0.37650001
0.007163723 -0.036957402 0.37642857
0.0085419379 -0.037925769 0.377
-0.02015272 -0.035086282 0.37650001
-0.019330256 -0.034642365 0.37600002
0.005336476 -0.035040215 0.37600002
0.006408989 -0.035234962 0.37666667
-0.018970434 -0.033116888 0.37675002
-0.017738855 -0.032255262 0.37600002
0.0037450739 -0.032255262 0.37600002
0.0049477345 -0.033109214 0.37666667
0.0061484859 -0.033936679 0.377
-0.017489348 -0.030956279 0.37633336
0.0033497135 -0.031082099 0.37625003
0.0045528514 -0.031144321 0.377
-0.016556568 -0.029091788 0.37625003
0.0029544362 -0.029115178 0.37655559
-0.016190397 -0.027554143 0.377
-0.015351751 -0.027083207 0.37600002
0.0013579709 -0.027083207 0.37600002
0.0025568763 -0.027136963 0.37674999
-0.014898404 -0.025293136 0.3766
-0.013760349 -0.024298253 0.37600002
-0.00023343122 -0.024298253 0.37600002
0.0009613242 -0.025115846 0.37633336
0.0021593997 -0.0255596 0.377
-0.013380797 -0.023135424 0.37650001
-0.0004988719 -0.022992214 0.37633336
0.00056376524 -0.023166146 0.377
-0.012384583 -0.021342453 0.37650001
-0.011373246 -0.020717598 0.37600002
-0.0026205343 -0.020319747 0.37600002
-0.0011294343 -0.021242989 0.37650001
-0.01099052 -0.019151628 0.37650001
-0.009781844 -0.018728346 0.37600002
-0.0042119361 -0.018728346 0.37600002
-0.0030201273 -0.019138647 0.37625003
-0.0015637474 -0.019310031 0.37700003
-0.010605676 -0.017980335 0.377
-0.0088956421 -0.017252969 0.37637499
-0.0070018065 -0.016749958 0.37625003
-0.0050133215 -0.017156493 0.37644446
-0.0031061943 -0.017342081 0.377
-0.0082122246 -0.015586885 0.377
-0.0070154988 -0.015586885 0.377
-0.0054198643 -0.015586885 0.377
-0.21302417 0.13904157 0.3766
-0.21348131 0.14041187 0.37600002
-0.21454224 0.14332944 0.37600002
-0.21338928 0.14311044 0.37640002
-0.22661036 0.14518608 0.37600002
-0.22501898 0.14558393 0.37600002
-0.2182555 0.14598177 0.37600002
-0.21692935 0.14571655 0.37600002
-0.21511546 0.14508368 0.37625003
-0.21332794 0.14491233 0.37666667
-0.22649503 0.14700828 0.377
-0.22481962 0.14756674 0.377
-0.22302972 0.14730795 0.37600002
-0.22143832 0.14757317 0.37600002
-0.2182555 0.14717533 0.37600002
-0.2168555 0.1473058 0.37633336
-0.21564472 0.14716783 0.377
-0.22236213 0.14916383 0.37666667
-0.22093549 0.14896509 0.37650001
-0.21890739 0.14889789 0.37666667
-0.21684144 0.14916238 0.377
-0.21564472 0.14876348 0.377
-0.22202726 0.15075801 0.377
-0.22102998 0.15095747 0.377
-0.21923488 0.15035911 0.377
0.021019023 -0.064594612 0.37900001
0.022623122 -0.064594612 0.37900001
0.011394427 -0.062188458 0.37900001
0.013120417 -0.062401116 0.3786667
0.014983857 -0.062774442 0.37850004
0.017061841 -0.063051619 0.37840003
0.018980453 -0.062880412 0.37833333
0.021009957 -0.062963165 0.37883335
0.022623122 -0.062990509 0.37900001
-0.0082557909 -0.060584359 0.37900001
-0.0070527163 -0.060584359 0.37900001
-0.0058342069 -0.060424507 0.37800002
-0.00063631858 -0.060584359 0.37900001
0.00096597505 -0.060504433 0.37850001
0.0031675345 -0.060664982 0.37825
0.0048403293 -0.061065774 0.3786667
0.0069831535 -0.061386414 0.37900004
0.0089758914 -0.061305426 0.37850001
0.010964396 -0.061224442 0.37800002
0.01949702 -0.060957797 0.37800002
0.020963565 -0.060824469 0.37800002
0.022623124 -0.060985386 0.37900001
-0.043545976 -0.058178209 0.37900001
-0.022692686 -0.058178209 0.37900001
-0.021088585 -0.058178209 0.37900004
-0.019058816 -0.058101457 0.37850001
-0.017055277 -0.05850248 0.37850001
-0.015073214 -0.05898026 0.37900001
-0.012841716 -0.05906406 0.37825
-0.011186558 -0.059463091 0.3786667
-0.0090339407 -0.059624575 0.37800002
-0.0030389829 -0.059703439 0.37850001
-0.0010346065 -0.059624575 0.37800002
0.020963565 -0.05882464 0.37800002
0.022542918 -0.059140671 0.37900001
-0.043545976 -0.057376161 0.37900001
-0.028708059 -0.05657411 0.37900001
-0.02692261 -0.056741945 0.37833333
-0.025266236 -0.057100482 0.37849998
-0.023032777 -0.057224773 0.37800002
-0.021832878 -0.057224773 0.37800002
0.019763663 -0.056824803 0.37800002
0.020991823 -0.056899972 0.37850001
0.022222098 -0.057376161 0.37900001
-0.031017795 -0.05478102 0.3788
-0.029368037 -0.055174377 0.37820002
0.019576753 -0.054660719 0.37825
0.020927938 -0.055100989 0.3788
-0.031073689 -0.052895013 0.37850001
0.018989522 -0.052894838 0.37849998
0.020617999 -0.053365912 0.37900001
-0.031001588 -0.05106597 0.37859997
0.017053077 -0.050691783 0.37820002
0.018412361 -0.051160276 0.37900001
-0.029871672 -0.048889525 0.37850001
0.015763996 -0.048825473 0.37800002
0.01699782 -0.048922081 0.37875003
-0.028549489 -0.046908222 0.3786667
-0.027432412 -0.046025705 0.37800002
0.013364197 -0.046025705 0.37800002
0.015079429 -0.046771571 0.37837499
0.01660775 -0.047350541 0.37900001
-0.027214151 -0.044771545 0.3786667
0.013097553 -0.044692483 0.37800002
0.014468951 -0.045078065 0.37900004
-0.026702935 -0.043741316 0.37900001
-0.025588682 -0.042329744 0.37833333
0.01176433 -0.042426005 0.37800002
0.012905027 -0.043053936 0.37859997
0.014201601 -0.043741316 0.37900001
-0.024788043 -0.040728465 0.37833333
0.011379924 -0.04088014 0.37849998
0.012597501 -0.041335166 0.37900001
-0.024296785 -0.039330043 0.37900001
-0.023248259 -0.03865147 0.37825
0.0093645286 -0.03802637 0.37800002
0.010756563 -0.039013948 0.37871429
-0.022662748 -0.036874652 0.37850001
-0.021832878 -0.036426503 0.37800002
0.0089707552 -0.03685056 0.37825
0.010191352 -0.037324917 0.37900001
-0.021194793 -0.034872703 0.37849998
0.0074487971 -0.034684651 0.37820002
0.0087877652 -0.03511928 0.37900001
-0.020286536 -0.03291364 0.37900001
-0.019433077 -0.03242683 0.37800002
0.0069746468 -0.032870047 0.37849998
0.0085872533 -0.033314668 0.37900001
-0.018858302 -0.031067725 0.37849998
-0.017833211 -0.030027032 0.37800002
0.0051648784 -0.030626982 0.37800002
0.0067516677 -0.031011144 0.37885717
-0.017582292 -0.028718879 0.37833333
0.0049684434 -0.028845932 0.37825
0.0061811041 -0.028903395 0.37900001
-0.016922837 -0.026862785 0.37850004
0.0035650113 -0.026627315 0.37800002
0.0048954091 -0.027044062 0.3788
-0.016276289 -0.02529417 0.37900001
-0.015433409 -0.024427498 0.37800002
0.003129032 -0.024773745 0.3784
0.0045770044 -0.02529417 0.37900001
-0.014863024 -0.023072908 0.37875003
-0.013833542 -0.022027697 0.37800002
0.0011652107 -0.022627648 0.37800002
0.0024905296 -0.02303593 0.3788
-0.013312453 -0.02097984 0.37833333
-0.00023467287 -0.020427831 0.37800002
0.00096703315 -0.020855347 0.37850001
0.0021708554 -0.021283921 0.37900001
-0.01245037 -0.019052852 0.37849998
-0.011433741 -0.018028028 0.37800002
-0.00076806534 -0.018569268 0.37816668
0.00083410589 -0.019412473 0.37900004
-0.0110489 -0.016850388 0.37849998
-0.0098338742 -0.016428161 0.37800002
-0.0026344731 -0.016428161 0.37800002
-0.0011967827 -0.016943738 0.3788
-0.01066194 -0.015669573 0.37900001
-0.0090441834 -0.014844502 0.37842858
-0.0070341071 -0.014428329 0.37800002
-0.0049215979 -0.014605045 0.37814289
-0.0030382776 -0.014847204 0.37850004
-0.0018393932 -0.015268548 0.37900001
0.14135356 -0.011628562 0.37800002
-0.21381693 0.14115873 0.37800002
-0.21346739 0.14322114 0.3788
-0.21197642 0.14393832 0.37900001
-0.21309823 0.14514935 0.37850001
-0.22821571 0.14715824 0.37800002
-0.21621671 0.1475582 0.37800002
-0.21500352 0.14739437 0.3784
-0.21315733 0.14725582 0.37825
-0.22821571 0.14835814 0.37800002
-0.2268825 0.14889142 0.37800002
-0.22581591 0.1487581 0.37800002
-0.21941644 0.149958 0.37800002
-0.21621671 0.149958 0.37800002
-0.21535699 0.14921919 0.37883335
-0.2131795 0.1487506 0.37900001
-0.22061634 0.15155786 0.37800002
-0.21890517 0.15155835 0.37849998
-0.21695967 0.15105815 0.37825
-0.21558565 0.15135726 0.37900001
-0.22261618 0.1523578 0.37800002
-0.22085631 0.15283777 0.37800002
-0.21930566 0.15295982 0.37849998
-0.22079897 0.15436496 0.37900001
-0.21919487 0.15436497 0.37900004
0.019517377 -0.066548035 0.38100001
0.021088084 -0.066819653 0.38025004
0.022548787 -0.066641435 0.38000005
0.011857697 -0.064129189 0.38100001
0.013067121 -0.064129189 0.38100001
0.015485967 -0.064935476 0.38100001
0.017202992 -0.065090612 0.38033336
0.019080438 -0.06522464 0.38033336
0.021074485 -0.065569207 0.38000003
0.02328594 -0.065368161 0.38000003
0.02475821 -0.064935476 0.38100001
0.001376029 -0.06251663 0.38100001
0.0029885934 -0.06251663 0.38100001
0.0049972022 -0.062434584 0.38050002
0.0071702055 -0.062740691 0.38040003
0.0090238508 -0.062837727 0.38050002
0.010828089 -0.062997222 0.38025001
0.01263074 -0.063156709 0.38000003
0.014641155 -0.063960873 0.38000003
0.023889065 -0.063156709 0.38000005
0.02475821 -0.062919766 0.38100001
-0.018781025 -0.06009778 0.38100001
-0.017168462 -0.06009778 0.38100001
-0.014749615 -0.060904063 0.38100001
-0.01313705 -0.060904067 0.38100001
-0.011092154 -0.060744207 0.38000003
-0.0092569133 -0.061323892 0.38060004
-0.0046654865 -0.060824133 0.38050002
-0.002918791 -0.061066255 0.38033336
-0.0012431748 -0.061468814 0.38075
0.0009703344 -0.061548375 0.38000003
0.0025786662 -0.061548375 0.38000003
0.023889065 -0.061146289 0.38000003
0.02475821 -0.060904063 0.38100001
-0.043316238 -0.058811605 0.38050002
-0.028456412 -0.058485217 0.38100001
-0.026843846 -0.058485221 0.38100001
-0.024762973 -0.058331709 0.38000003
-0.022998508 -0.059051551 0.38075
-0.020769969 -0.059213687 0.38050002
-0.019133814 -0.059135877 0.38000003
-0.017927565 -0.059135877 0.38000003
-0.015112985 -0.059940044 0.38000003
-0.013504652 -0.059940044 0.38000003
0.023703739 -0.058973208 0.38025001
-0.043316238 -0.057200097 0.38050002
-0.032756582 -0.056335133 0.38100001
-0.030855 -0.057238474 0.38075003
-0.029185887 -0.057259493 0.38000005
-0.027577555 -0.057527546 0.38000003
0.02310962 -0.05694392 0.38040003
-0.032848328 -0.054784954 0.38050002
-0.031598385 -0.055919215 0.38000003
0.021476567 -0.054310881 0.38000003
0.022626698 -0.055011809 0.38040003
-0.032937486 -0.052946597 0.38060004
0.021303784 -0.052771367 0.38050002
0.022608127 -0.053378761 0.38100001
-0.032459401 -0.051183157 0.3806667
-0.031598385 -0.050290052 0.38000003
0.019557025 -0.050959855 0.3802
0.020914771 -0.051194534 0.38075003
-0.031117007 -0.049303945 0.3806667
0.019093342 -0.048984692 0.38057145
-0.030068975 -0.047197267 0.38100001
-0.029479545 -0.047113977 0.38033336
0.017266179 -0.046902791 0.38025001
0.018291939 -0.047155272 0.3806667
-0.028700277 -0.045276061 0.3806667
0.015593251 -0.044968124 0.38033336
0.017087575 -0.045151647 0.38075
-0.02721123 -0.043108679 0.38050002
0.013434906 -0.042248391 0.38000003
0.015066464 -0.0431173 0.38057148
-0.026440706 -0.041150153 0.38100001
-0.025969224 -0.041444227 0.38000003
0.01316685 -0.040908113 0.38000005
0.014545303 -0.041284531 0.38100001
-0.026037565 -0.039940726 0.38100001
-0.024919078 -0.039065968 0.38033336
0.011826574 -0.038629644 0.38000003
0.012973197 -0.039254192 0.38060004
0.014276543 -0.039940726 0.38100001
-0.024425 -0.03752188 0.38100001
-0.023556726 -0.037021317 0.38000003
0.011195689 -0.036979869 0.38040003
0.012663979 -0.03752188 0.38100001
-0.022999039 -0.03528104 0.38075003
-0.021948393 -0.034206737 0.38000003
0.0094140768 -0.034608819 0.38000003
0.010813367 -0.035191592 0.38071433
-0.022006154 -0.033490472 0.38100001
-0.021144228 -0.033000484 0.38000003
0.0091460217 -0.032866459 0.38000005
0.010245132 -0.033087328 0.38100001
-0.020644508 -0.031581257 0.3806667
-0.019535895 -0.03058799 0.38000003
0.0078057447 -0.03058799 0.38000003
0.0090281563 -0.031044088 0.3806667
0.010245132 -0.031877905 0.38100001
-0.019016922 -0.029139459 0.38033336
0.0074087973 -0.028998457 0.38025001
0.0086325686 -0.029055919 0.38100001
-0.018781025 -0.027846497 0.38100001
-0.017951153 -0.026601586 0.38050002
0.0053932467 -0.026165076 0.38000003
0.0069107995 -0.027105248 0.38050005
-0.016870365 -0.024846341 0.38033336
0.0051251911 -0.024824798 0.38000005
0.0064824829 -0.025158888 0.38100001
-0.016362179 -0.023815086 0.38100001
-0.015535482 -0.022575468 0.38050002
0.0035838736 -0.022747371 0.38000003
0.0049212552 -0.023157557 0.38080004
-0.014730258 -0.020965017 0.38050002
-0.013906736 -0.020535914 0.38000003
0.0031455667 -0.020879621 0.38040003
0.0046011577 -0.021396238 0.38100001
-0.013513802 -0.018940035 0.38025001
0.0011043621 -0.018391473 0.38000005
0.0027179234 -0.019229198 0.3806667
-0.012588741 -0.017080875 0.3806667
-0.00023591453 -0.016515085 0.38000003
0.00097214017 -0.016939426 0.38050002
0.0021823111 -0.017364828 0.38100001
-0.012330769 -0.015752263 0.38100001
-0.01110675 -0.014925838 0.38050002
-0.0098859062 -0.014102587 0.38000003
-0.21414405 0.14190561 0.38000003
-0.21333988 0.14190561 0.38000003
-0.21321797 0.14329964 0.38050002
-0.21173155 0.14351395 0.38000003
-0.21280377 0.14565839 0.38000005
-0.21140988 0.14528313 0.38000003
-0.21272145 0.14726175 0.38033339
-0.2109987 0.147278 0.38100001
-0.21454613 0.14994727 0.38000003
-0.21270962 0.14921734 0.38060004
-0.21107933 0.14872929 0.38100001
-0.22599554 0.150745 0.38100001
-0.21490009 0.15131371 0.38020003
-0.21349816 0.15114814 0.38100001
-0.21848655 0.15332477 0.38000003
-0.21695863 0.15316394 0.38000003
-0.21537192 0.15306309 0.38075
-0.21390131 0.15276071 0.38100001
-0.2221857 0.15477227 0.38000003
-0.21905506 0.15557957 0.38050002
-0.21739522 0.1549108 0.38100001
-0.21862432 0.15678653 0.38033336
-0.21793272 0.15679212 0.38100001
0.017368603 -0.068968177 0.384
0.018706266 -0.068908542 0.38366669
0.011951065 -0.066259407 0.384
0.013170011 -0.066259407 0.384
0.015015311 -0.066643037 0.38340002
0.016953051 -0.067419469 0.38320002
0.01898686 -0.067417398 0.38250002
0.0013868639 -0.064634144 0.384
0.0030121254 -0.064634144 0.384
0.0050305678 -0.064465828 0.38300002
0.0070660673 -0.064956307 0.38350004
0.0090831406 -0.064872146 0.38300002
0.010936146 -0.064884804 0.38260004
0.013101418 -0.065105908 0.38200003
0.015122414 -0.065510109 0.38200003
0.01673921 -0.065914303 0.38200003
0.025631592 -0.064701706 0.38200003
0.026439991 -0.064297512 0.38200003
-0.018928908 -0.062196255 0.384
-0.016875857 -0.062115267 0.38350001
-0.01501237 -0.062619045 0.38360006
-0.012800753 -0.062844798 0.38300002
-0.011584981 -0.062844798 0.38300002
-0.0069979159 -0.06235915 0.38333338
-0.0051104492 -0.062954187 0.38366669
-0.0029418159 -0.063170373 0.38333338
-0.001048997 -0.063250765 0.38300002
0.00084241072 -0.063330457 0.38266668
0.0029983465 -0.063544512 0.38233337
0.0050174333 -0.063489109 0.38200003
0.0062300307 -0.063489109 0.38200003
0.025631592 -0.063084915 0.38200003
0.026486134 -0.062789395 0.38266668
-0.028680477 -0.060570993 0.384
-0.027055215 -0.060570996 0.384
-0.024958473 -0.060413256 0.38300002
-0.022952497 -0.060872152 0.38333338
-0.02089252 -0.060779605 0.38275003
-0.019057594 -0.060941745 0.38250002
-0.016809322 -0.061063915 0.38200003
-0.015596725 -0.061063915 0.38200003
-0.01317153 -0.061872315 0.38200006
-0.011150533 -0.061872315 0.38200003
-0.005087547 -0.061872315 0.38200006
-0.0034707498 -0.061872315 0.38200003
0.025653958 -0.061116498 0.38233337
0.026509205 -0.060818516 0.38300002
-0.043307833 -0.059758361 0.384
-0.035181522 -0.058403976 0.384
-0.032986086 -0.05916544 0.38366669
-0.031038038 -0.059198193 0.38299999
-0.029120531 -0.059281401 0.38266668
-0.026938494 -0.059498996 0.38233337
-0.024893306 -0.059447121 0.38200003
0.025260942 -0.059120201 0.38250002
0.026509205 -0.059602741 0.38300002
-0.043195054 -0.057171196 0.38300002
-0.036806785 -0.056914151 0.384
-0.034961935 -0.056918602 0.38285714
-0.033112027 -0.057560857 0.38200006
-0.031764694 -0.057830323 0.38200003
0.024564816 -0.057009097 0.38299999
-0.036806785 -0.054882579 0.384
-0.035180427 -0.054929487 0.3827143
0.024046227 -0.05507239 0.38250002
-0.034846451 -0.053098511 0.38285717
0.022936931 -0.052440997 0.38200006
0.024098618 -0.053164151 0.38333338
-0.034609936 -0.051316362 0.38366669
-0.033425182 -0.051025108 0.38250002
0.021589601 -0.050554737 0.38200003
0.022943366 -0.050848335 0.38300002
0.024140527 -0.051225737 0.384
-0.033000045 -0.049252927 0.38320002
-0.031522948 -0.048441004 0.38233337
0.019972803 -0.048129544 0.38200003
0.021213308 -0.049001288 0.38250002
0.022703765 -0.049161602 0.38375002
-0.031200705 -0.046958715 0.38300005
0.019433871 -0.047051679 0.38200006
0.021020314 -0.04700784 0.38340002
0.022515265 -0.047568899 0.384
-0.030489169 -0.045304254 0.38375002
-0.029095635 -0.044395488 0.38233337
0.01714341 -0.044087552 0.38200003
0.018793298 -0.044973947 0.38266668
0.020610414 -0.045381941 0.38383338
-0.028901562 -0.043160044 0.38333338
-0.027722701 -0.042470753 0.38200003
0.015930813 -0.042470753 0.38200003
0.017177332 -0.042958867 0.38275003
0.018846415 -0.043071106 0.38375002
0.020077374 -0.043505743 0.384
-0.028680477 -0.041880485 0.384
-0.027471492 -0.040798377 0.38300002
0.015624135 -0.04073463 0.38240004
0.01721856 -0.041031852 0.38366669
0.018452112 -0.041880485 0.384
-0.026597645 -0.038959768 0.38325
-0.025297506 -0.038428761 0.38200003
0.013505617 -0.038428761 0.38200003
0.01498491 -0.038975008 0.38260001
0.016555972 -0.038900837 0.384
-0.026242584 -0.037817329 0.384
-0.025026703 -0.036726113 0.38280001
0.01318933 -0.036669135 0.3822
0.01476994 -0.036940105 0.38333338
0.016014218 -0.037817329 0.384
-0.024585269 -0.034927055 0.38350001
-0.023711706 -0.034835979 0.38250002
0.01188882 -0.03479097 0.38200003
0.013119096 -0.034836508 0.38249999
0.014659835 -0.035108563 0.384
-0.022941647 -0.032867715 0.38314289
0.011571686 -0.032948386 0.38220003
0.013153392 -0.032898653 0.38350004
0.014388957 -0.033754174 0.384
-0.02215055 -0.03086919 0.38350001
-0.021004595 -0.030640721 0.38233337
0.011097904 -0.030967899 0.38257149
0.012763696 -0.030909967 0.384
-0.020835979 -0.028979484 0.38320002
-0.019638717 -0.02872798 0.38200003
0.009463625 -0.02913218 0.38200003
0.011122766 -0.029066689 0.38342863
-0.020554168 -0.027253129 0.384
-0.019346206 -0.026991239 0.38260004
0.0078468276 -0.026302785 0.38200003
0.0090676835 -0.027134491 0.38233334
0.010515517 -0.027217112 0.38350001
-0.018626228 -0.025041973 0.38333333
0.0075773615 -0.024955455 0.38200006
0.0090951761 -0.024782218 0.38350004
0.010325803 -0.025627866 0.384
-0.018116277 -0.023189973 0.384
-0.016925788 -0.022954555 0.38280001
0.0054216324 -0.022260794 0.38200003
0.0070516532 -0.023108983 0.38266671
0.0087005412 -0.022783659 0.384
-0.016491015 -0.021158397 0.384
-0.01561714 -0.021075217 0.38250002
0.0051521668 -0.020913463 0.38200006
0.0069025452 -0.021206388 0.38340002
-0.015143926 -0.019228727 0.38280001
-0.013979929 -0.018218802 0.38200003
0.0035353694 -0.018488269 0.38200006
0.0050289081 -0.019068003 0.38283336
0.0064617293 -0.019316996 0.38375002
-0.014299601 -0.017201003 0.38333338
-0.01317153 -0.016602006 0.38200003
0.14101216 -0.015409022 0.38250002
-0.21042073 0.14750287 0.38200003
-0.21203753 0.14992806 0.38200003
-0.21087383 0.14924979 0.38233337
-0.22858767 0.15152566 0.384
-0.21276221 0.15113816 0.38233337
-0.21124177 0.15086088 0.38300002
-0.23021293 0.1523383 0.384
-0.22899398 0.1523383 0.384
-0.22637135 0.15275209 0.38300002
-0.21486692 0.15397005 0.38200003
-0.21313253 0.15303427 0.38310003
-0.21152243 0.15274461 0.384
-0.2241635 0.15558685 0.38200003
-0.21634899 0.1553174 0.38200006
-0.21488327 0.15528496 0.38275
-0.2132754 0.15498042 0.38350004
-0.22272405 0.15680465 0.38300002
-0.22092991 0.15720364 0.38200003
-0.21690692 0.15690413 0.38275003
-0.21477295 0.15640144 0.384
-0.21368945 0.15667233 0.384
-0.21842745 0.15891242 0.38300005
-0.21682166 0.15867388 0.38360006
-0.22456771 0.16043724 0.38200003
-0.22393981 0.16085723 0.38300002
0.016097626 -0.070688821 0.38600001
0.013647036 -0.068238236 0.38600001
0.014938605 -0.06882102 0.38560003
0.016341407 -0.069479704 0.38533336
0.005069972 -0.06660451 0.38600001
0.0071121305 -0.06660451 0.38600001
0.009130572 -0.066431962 0.38500002
0.010774041 -0.066926673 0.38550001
0.012807309 -0.067304932 0.38533336
-0.016985338 -0.064153917 0.38600001
-0.015760042 -0.064153917 0.38600001
-0.0084082726 -0.064153917 0.38600001
-0.0071829772 -0.064153917 0.38600001
-0.0059576826 -0.064153917 0.38600001
-0.0030986611 -0.064970784 0.38600001
-0.0010553835 -0.064858578 0.38533336
0.0008490131 -0.065459251 0.3856667
0.0030218791 -0.065674029 0.38533336
0.0050568371 -0.065617211 0.38500002
-0.02515397 -0.062520191 0.38600001
-0.0230726 -0.062412214 0.38533336
-0.021042362 -0.062847644 0.38550001
-0.018995337 -0.063227668 0.38533336
-0.016941333 -0.063172974 0.38500002
-0.010423358 -0.063172974 0.38500002
-0.0087938635 -0.063172974 0.38500002
-0.0075717424 -0.063172974 0.38500002
-0.0047201277 -0.063987717 0.38500002
-0.0034980068 -0.063987717 0.38500002
-0.042716529 -0.060069606 0.38600001
-0.036590055 -0.060069606 0.38600001
-0.035092473 -0.060614184 0.38600001
-0.032886453 -0.060833894 0.3856667
-0.030682549 -0.061053596 0.38533336
-0.029014869 -0.061459683 0.38575003
-0.026753526 -0.061623402 0.38550001
-0.025088804 -0.061543476 0.38500002
-0.042605866 -0.058691859 0.38500002
-0.038632214 -0.058435876 0.38600001
-0.03710435 -0.058834739 0.38540003
-0.034865767 -0.05950661 0.38500002
-0.033643648 -0.059913982 0.38500002
0.025899986 -0.058435876 0.38600001
0.026647635 -0.059099235 0.38500002
-0.039015625 -0.057173789 0.38575003
-0.037717383 -0.057062365 0.38500002
-0.038918924 -0.055274207 0.38560003
-0.037717383 -0.055025499 0.38500005
0.025018141 -0.055025499 0.38500005
-0.036951087 -0.053057447 0.38550001
0.025050633 -0.053056918 0.38550001
-0.036422666 -0.051583868 0.3856667
-0.035032101 -0.050452009 0.38533336
0.024643257 -0.051018994 0.38550001
-0.034547899 -0.049041949 0.38600001
-0.033643648 -0.048507523 0.38500002
0.023388647 -0.048507523 0.38500002
0.024234828 -0.048977897 0.38550001
-0.032880493 -0.046951085 0.38560003
0.023087049 -0.046763361 0.38540003
0.02426626 -0.047408223 0.38600001
-0.03209731 -0.045366064 0.38600001
-0.031239925 -0.044898868 0.38550001
0.021487569 -0.044705372 0.38500005
0.022904819 -0.045093775 0.38600001
-0.030709563 -0.043422282 0.3856667
-0.029569913 -0.042804293 0.38500002
0.021209184 -0.042867523 0.38557142
0.022632532 -0.043732338 0.38600001
-0.029181739 -0.041201536 0.38525003
0.018999046 -0.041032817 0.38519999
0.020498231 -0.041096564 0.38580003
-0.02828528 -0.038831159 0.38600001
-0.027940419 -0.039545305 0.38500002
0.017700728 -0.038763389 0.38533336
