# .PCD v0.7 - Point Cloud Data file format
VERSION 0.7
FIELDS x y z
SIZE 4 4 4
TYPE F F F
COUNT 1 1 1
WIDTH 1314
HEIGHT 1
VIEWPOINT 0 0 0 1 0 0 0
POINTS 1314
DATA ascii
0.0131363 -0.043036118 0.38814288
0.014576313 -0.042837404 0.38900003
0.003874558 -0.041602589 0.38900003
0.0049634175 -0.040983189 0.38833338
0.0063278852 -0.040674549 0.38800001
0.0096122678 -0.040674549 0.38800001
0.010980762 -0.040948249 0.38800001
0.012759022 -0.041251916 0.38880002
0.0052465778 -0.039681762 0.38900003
0.0072608306 -0.039184764 0.38850001
0.0092137549 -0.03908195 0.38850003
0.01078416 -0.039277054 0.38880002
0.012106678 -0.039956164 0.38900003
0.023753144 -0.072431929 0.39100003
0.02499431 -0.072431929 0.39100003
0.027217872 -0.072499849 0.39025
0.029094281 -0.072753027 0.39050001
0.030747052 -0.072753027 0.39050001
0.032689545 -0.072762907 0.39100003
0.01341009 -0.070777044 0.39100003
0.015064978 -0.070777044 0.39100003
0.017307585 -0.070848137 0.39025003
0.019202199 -0.07160449 0.39100003
0.020803746 -0.071421348 0.39000002
0.022867067 -0.071421348 0.39000005
0.024930388 -0.071421348 0.39000002
0.031285416 -0.071091227 0.39000002
0.03324775 -0.071145512 0.39075002
0.034509923 -0.071190767 0.39100003
-0.0010701881 -0.068294704 0.39100003
0.00099842297 -0.068294704 0.39100003
0.0032680118 -0.068370566 0.39025003
0.0051356452 -0.069122151 0.39100003
0.0067731664 -0.068945363 0.39000002
0.0088478159 -0.069447488 0.39050001
0.010913253 -0.069860145 0.39050001
0.012963129 -0.069770694 0.39000005
0.031533014 -0.068945371 0.39000005
0.03324075 -0.069062874 0.39066669
0.034509923 -0.069535874 0.39100003
-0.0060348543 -0.066639818 0.39100003
-0.0046520466 -0.066858821 0.39066669
-0.0032713551 -0.067077115 0.39033335
-0.001067451 -0.067294709 0.39000005
0.031533014 -0.066882044 0.39000002
0.033130851 -0.067191444 0.39100003
-0.008517188 -0.064157486 0.39100003
-0.0066871266 -0.065215766 0.39040002
-0.0051940922 -0.065644056 0.39000002
0.030822137 -0.065049849 0.39040002
0.032303404 -0.065536559 0.39100003
-0.008517188 -0.062916316 0.39100003
-0.0074637444 -0.0633744 0.39000002
0.029282251 -0.0630017 0.39025
0.030560143 -0.063289016 0.39075002
-0.008517188 -0.06167515 0.39100003
-0.0076831877 -0.060795128 0.39066669
0.027819037 -0.061104748 0.39000002
0.029034099 -0.060981642 0.39080003
-0.0064403303 -0.059116594 0.39050001
0.027249897 -0.058966476 0.39028576
0.02871781 -0.059192818 0.39100003
-0.0060348543 -0.057537928 0.39100003
-0.0052007511 -0.057050627 0.39050001
0.025343053 -0.056978106 0.39000002
0.026632426 -0.057087418 0.39075002
-0.0046520466 -0.055559587 0.39066669
-0.0035434356 -0.054089461 0.39000002
0.023692396 -0.054502122 0.39000002
0.024973359 -0.055008307 0.39066669
0.026235478 -0.055883039 0.39100003
-0.0031353144 -0.052919753 0.39050001
0.023056431 -0.052823145 0.39040002
0.024580589 -0.053400706 0.39100003
-0.0027250769 -0.051745817 0.39100003
-0.001894397 -0.050830852 0.39033335
0.021216411 -0.050788146 0.39000002
0.022673139 -0.050999071 0.39071432
-0.00086180324 -0.048962127 0.39025
0.019565756 -0.048312161 0.39000002
0.020908041 -0.049022403 0.39040002
0.022098256 -0.049263485 0.39100003
-0.00024274363 -0.047194872 0.39100003
0.00058320537 -0.046661504 0.39000002
0.019165631 -0.047104083 0.39025
0.020719182 -0.047332779 0.39100003
0.00085881323 -0.045049321 0.39033335
0.017204154 -0.044936009 0.39025003
0.019109845 -0.045268249 0.39080003
0.0014121451 -0.043471374 0.39100003
0.0022338617 -0.042534865 0.39000002
0.015439113 -0.042947531 0.39000002
0.016709441 -0.04302986 0.39075002
0.0032003138 -0.040936626 0.39050004
0.013513347 -0.040333994 0.39000005
0.015045891 -0.040935919 0.39050004
0.016306145 -0.041816484 0.39100003
0.0038944783 -0.039334152 0.39100003
0.0049889814 -0.03871616 0.39033335
0.0063605024 -0.038408224 0.39000002
0.011312472 -0.038408224 0.39000002
0.012974913 -0.038854066 0.39033335
0.014651256 -0.039334152 0.39100003
0.0052735526 -0.037403449 0.39100003
0.006781674 -0.036803991 0.39050001
0.0088440394 -0.036788281 0.39033335
0.010913959 -0.036803987 0.39050004
0.012720553 -0.037127636 0.39100003
0.0072042565 -0.03519693 0.39100003
0.0088591455 -0.03519693 0.39100003
0.010514034 -0.03519693 0.39100003
0.026785512 -0.074465781 0.39300001
0.028815035 -0.074339464 0.39233336
0.03090453 -0.074786879 0.39250001
0.032981075 -0.074786887 0.39250001
0.035080217 -0.07483425 0.39274999
0.036627024 -0.07474301 0.39300001
0.017221229 -0.072802432 0.39300001
0.018867861 -0.072740674 0.39266667
0.021066826 -0.072956152 0.39233336
0.022853602 -0.073227338 0.39260003
0.025089668 -0.073540419 0.39250001
0.026717357 -0.073446736 0.39200002
0.033768624 -0.073446736 0.39200002
0.03501296 -0.073031954 0.39200002
0.036742512 -0.073171951 0.39274999
0.038013149 -0.073218271 0.39300001
0.0030827222 -0.070307396 0.39300001
0.0051548178 -0.070217945 0.39250001
0.0068165846 -0.070633784 0.39250001
0.0088886507 -0.071018398 0.39233336
0.010969679 -0.071464404 0.39249998
0.012847145 -0.071717583 0.39274999
0.015103508 -0.071787618 0.39200002
0.016762629 -0.071787618 0.39200002
0.035427742 -0.070958063 0.39200005
0.036719389 -0.071048573 0.39250001
0.038013153 -0.071139082 0.39300001
-0.0060657235 -0.068644039 0.39300001
-0.0048126075 -0.068556711 0.39250001
-0.0031508405 -0.068972543 0.39250001
-0.0010754552 -0.069416791 0.39266667
0.0010009765 -0.06929893 0.39200002
0.0026600978 -0.06929893 0.39200002
0.035151221 -0.068745896 0.39200005
0.036765635 -0.069059879 0.39300001
-0.010224108 -0.066149011 0.39300001
-0.0091152061 -0.066703461 0.39300001
-0.0070532053 -0.067377008 0.39240003
-0.0052207285 -0.067639813 0.39200002
0.033768624 -0.06681025 0.39200002
0.035057798 -0.06689477 0.39250001
0.036349796 -0.067396522 0.39300001
-0.010639946 -0.064901493 0.39300001
-0.0089537511 -0.065151133 0.39200002
-0.0077094105 -0.065980688 0.39200002
0.03322994 -0.064901963 0.3921667
0.034686442 -0.065317333 0.39300001
-0.010224108 -0.063238144 0.39300001
-0.0093685314 -0.063077226 0.39200002
0.03127994 -0.062662445 0.39200002
0.032823991 -0.063256942 0.39260003
-0.0089711472 -0.061120044 0.39274999
0.029620819 -0.060173765 0.39200002
0.030891757 -0.061054852 0.39233336
0.032191411 -0.061574787 0.39300001
-0.0074394457 -0.058840923 0.39233336
0.029344298 -0.058791168 0.39200005
0.030805286 -0.059218369 0.39300001
-0.0064777033 -0.056964301 0.39274999
0.027685177 -0.056855522 0.39200005
0.028850017 -0.056971133 0.3928
-0.0060657235 -0.055337209 0.39300001
-0.0049486477 -0.054689594 0.39233336
0.026734661 -0.054816291 0.39225003
0.028033027 -0.055337209 0.39300001
-0.0043967688 -0.053189728 0.39250001
-0.0035616071 -0.052707721 0.39200002
0.025281871 -0.052740805 0.39225003
0.026577594 -0.053050101 0.39300001
-0.0031490983 -0.051081154 0.39225
0.023813894 -0.050633818 0.39200002
0.024882808 -0.051113185 0.39250001
-0.0027390157 -0.049515471 0.39300001
-0.0019024857 -0.048974697 0.39200002
0.023174545 -0.048941717 0.3924
0.024706321 -0.049515471 0.39300001
-0.0010744431 -0.046948653 0.3924
0.021048693 -0.046347752 0.39200005
0.022756323 -0.047277372 0.39283332
-0.00024367488 -0.044883542 0.39250001
0.0005861962 -0.044412114 0.39200002
0.019666092 -0.044412114 0.39200002
0.020937633 -0.044884071 0.39250001
0.022211289 -0.045357086 0.39300001
0.0010022533 -0.042806994 0.39250001
0.018619806 -0.042917646 0.39242858
0.020547936 -0.043277897 0.39300001
0.0014193685 -0.041198704 0.39300001
0.0022481815 -0.040730447 0.39250001
0.01685435 -0.040948503 0.39220002
0.018052906 -0.040782865 0.39300001
0.003354013 -0.038914539 0.39233336
0.015241768 -0.038881712 0.39200005
0.016652878 -0.039224591 0.39266667
0.0039094188 -0.037407972 0.39250001
0.0050145453 -0.036423739 0.39233336
0.013582647 -0.036393028 0.39200005
0.015051375 -0.037187379 0.3928
0.016389553 -0.037871994 0.39300001
0.0052957963 -0.035069734 0.39266667
0.0066696405 -0.034733906 0.39200005
0.0088818036 -0.034457386 0.39200005
0.011093965 -0.034733906 0.39200005
0.013046931 -0.034916472 0.39250001
0.014726199 -0.035376966 0.39300001
0.0055777528 -0.033713613 0.39300001
0.0069047511 -0.033031113 0.3928
0.0088916393 -0.032834746 0.39244443
0.010974336 -0.032853339 0.39266667
0.01256384 -0.033048268 0.39300001
0.0089044608 -0.031218581 0.39300001
0.010567814 -0.031218581 0.39300001
0.02984751 -0.076516554 0.39500001
0.031101372 -0.076516554 0.39500001
0.033162434 -0.076451987 0.39466667
0.035360694 -0.076666057 0.39433336
0.036905963 -0.076837659 0.39450002
0.039009921 -0.076869942 0.39466667
0.040714331 -0.076934509 0.39500001
0.015637049 -0.074008822 0.39500001
0.016890913 -0.074008822 0.39500001
0.018144779 -0.074008822 0.39500001
0.021070462 -0.074844733 0.39500001
0.023139987 -0.074781574 0.39466667
0.025346711 -0.07499706 0.39433336
0.026921827 -0.075680643 0.39500001
0.028938152 -0.075489059 0.39400002
0.037276082 -0.075489052 0.39400002
0.038943671 -0.075072154 0.39400002
0.040714331 -0.074844733 0.39500004
0.0056061381 -0.072337009 0.39500001
0.0068507898 -0.072245449 0.39450002
0.0091033634 -0.072561495 0.39440003
0.011039549 -0.073172919 0.39500001
0.013096085 -0.072987676 0.39400002
0.015180566 -0.072987676 0.39400002
0.016431255 -0.072987676 0.39400002
0.01934953 -0.073821463 0.39400002
0.020600222 -0.073821463 0.39400002
0.039360568 -0.072987676 0.39400002
0.040714331 -0.072754964 0.39500001
-0.0031709098 -0.070665188 0.39500001
-0.0010783992 -0.070486292 0.39400002
0.0010073603 -0.070993692 0.39450002
0.0030950904 -0.071440764 0.39466667
0.0051750494 -0.071320087 0.39400002
0.039360568 -0.070903189 0.39400002
-0.010694094 -0.068157464 0.39500001
-0.009022275 -0.068993375 0.39500001
-0.0069231973 -0.069323987 0.39450002
-0.0048304684 -0.069652498 0.39400002
0.038986638 -0.069131792 0.39442861
-0.012783867 -0.066485643 0.39500001
-0.011256725 -0.06685169 0.39420006
-0.0089994334 -0.067984916 0.39400002
0.037091285 -0.06698475 0.39425004
0.038391396 -0.067278415 0.39475003
-0.012783867 -0.06564974 0.39500001
-0.011932833 -0.065148681 0.39450002
0.035330571 -0.064927667 0.39400002
0.036782593 -0.065315709 0.39466667
-0.011095593 -0.063046098 0.39440003
0.033662982 -0.062426295 0.39400002
0.035179678 -0.063276798 0.39480004
0.036534786 -0.06397792 0.39500001
-0.010276139 -0.061470192 0.39500001
-0.0094163297 -0.060480777 0.39400002
0.032829188 -0.060758706 0.39400002
0.034305692 -0.061191555 0.39500004
-0.008875696 -0.059469275 0.39466667
0.031479429 -0.058469869 0.39450002
0.032543737 -0.059133593 0.39475
-0.0074773687 -0.05719395 0.39433336
0.029771946 -0.056728706 0.39400002
0.030853556 -0.057217591 0.39450002
-0.0065068295 -0.055131525 0.39450002
0.029135138 -0.055033643 0.39440003
0.030683419 -0.055618826 0.39500001
-0.0060965922 -0.053947005 0.39500001
-0.0050422461 -0.052801274 0.39425004
0.027270567 -0.052559741 0.39400002
0.028709186 -0.053344563 0.39466667
-0.0044191726 -0.050956212 0.39450002
-0.0035797784 -0.050475258 0.39400002
0.02560298 -0.050475258 0.39400002
0.026888277 -0.050956741 0.39450002
0.028175691 -0.051439278 0.39500001
-0.0031691673 -0.048900582 0.39475003
0.025410779 -0.048838116 0.39425001
0.02671285 -0.049140528 0.39500001
-0.0027529551 -0.047259733 0.39500001
-0.0019121923 -0.046723191 0.39400002
0.023657463 -0.046584226 0.39400002
0.025025316 -0.047229294 0.39475
-0.0013579482 -0.045233041 0.39433336
0.023292659 -0.045017969 0.39440003
0.024832053 -0.045587912 0.39500001
-0.00045389382 -0.043234099 0.39450002
0.00058918697 -0.042137329 0.39400002
0.019766428 -0.042554222 0.39400002
0.021252239 -0.042816143 0.39450002
0.022647386 -0.043225132 0.39480004
0.0010068312 -0.040939055 0.39450002
0.019362073 -0.040912315 0.39425004
0.021070462 -0.041408367 0.39500001
0.0014265917 -0.039736547 0.39500001
0.0022586826 -0.038834278 0.39433336
0.01726505 -0.038802154 0.39400002
0.018721869 -0.038977243 0.39457145
0.0033009755 -0.036949158 0.39425004
0.015597463 -0.036300775 0.39400002
0.016949061 -0.037005093 0.39440003
0.018144779 -0.037228819 0.39500001
0.0039293393 -0.035094038 0.39450002
0.0047581526 -0.034633189 0.39400002
0.015319532 -0.034911122 0.39400002
0.016751595 -0.035278365 0.39500004
0.0051816162 -0.033006907 0.39450002
0.0064257388 -0.03213181 0.39400002
0.013721429 -0.032757156 0.39400002
0.015206605 -0.033021029 0.39466667
0.01647296 -0.033885181 0.39500001
0.0056061381 -0.031377453 0.39500001
0.0068467124 -0.030900452 0.39425001
0.008927118 -0.030464225 0.39400002
0.011150567 -0.030742157 0.39400002
0.013113408 -0.030920133 0.39450002
0.014801141 -0.031377453 0.39500001
0.0072779567 -0.029705636 0.39500001
0.0090457667 -0.028946016 0.39462501
0.011030233 -0.02884466 0.39466667
0.01296214 -0.029371275 0.39500001
0.039240193 -0.080264546 0.39700001
0.040080335 -0.080264546 0.39700001
0.035039485 -0.078584269 0.39700001
0.037248328 -0.078798339 0.39666671
0.039157476 -0.078838676 0.39616668
0.041096747 -0.078665666 0.39600003
0.042600762 -0.078584261 0.39700001
0.019496864 -0.076063842 0.39700001
0.021177147 -0.076063842 0.39700001
0.02243736 -0.076063842 0.39700001
0.024957787 -0.076903984 0.39700001
0.027023531 -0.076807126 0.39650002
0.0291223 -0.077227198 0.39650005
0.03121895 -0.077646211 0.39650002
0.032856163 -0.077548295 0.39600003
0.034532212 -0.077548295 0.39600003
0.041725557 -0.076838709 0.39666671
0.0089950906 -0.074383557 0.39700001
0.011067497 -0.074196197 0.39600003
0.012743548 -0.074196197 0.39600003
0.01469349 -0.074812703 0.39660001
0.016954528 -0.075128958 0.39650002
0.019028738 -0.075034223 0.39600003
0.023218868 -0.075872242 0.39600003
0.024475906 -0.075872242 0.39600003
-0.00066653942 -0.072703272 0.39700001
0.0010137442 -0.072703272 0.39700001
0.0031062546 -0.072520152 0.39600003
0.0050704041 -0.073202327 0.39666671
0.0068773692 -0.073358171 0.39600003
0.0081344079 -0.073358171 0.39600003
-0.010748241 -0.070182845 0.39700001
-0.0090570655 -0.070094451 0.39650002
-0.007168863 -0.070724033 0.39650002
-0.0047190515 -0.071183771 0.3963334
-0.0031869649 -0.07186313 0.39700001
-0.0010838734 -0.071682118 0.39600003
0.040817406 -0.070844099 0.39600003
-0.013117855 -0.068725102 0.39666671
-0.011349686 -0.068958528 0.39600003
0.03997938 -0.068330012 0.39600003
0.040920477 -0.068922639 0.39700001
-0.014528879 -0.067242354 0.39700001
-0.013374916 -0.067212656 0.39600003
0.039560366 -0.06707298 0.39600003
0.040500406 -0.067242354 0.39700001
-0.014528879 -0.065982141 0.39700001
-0.013243864 -0.065018937 0.39625004
0.037465304 -0.064558901 0.39600003
0.038787883 -0.065086961 0.39666671
0.040080335 -0.065982141 0.39700001
-0.012848596 -0.063461713 0.39700001
-0.011978205 -0.062882848 0.39600003
0.035789251 -0.062463839 0.39600003
0.037093595 -0.062962249 0.39650002
0.03840005 -0.063461713 0.39700001
-0.012008454 -0.061781432 0.39700001
-0.010734704 -0.060864009 0.39650002
0.035507843 -0.06071144 0.39660007
0.036719769 -0.061361361 0.39700001
-0.010328171 -0.059261005 0.39700001
-0.0091927536 -0.058602106 0.3963334
0.033275176 -0.058692724 0.39600003
0.034366306 -0.05918584 0.39650002
-0.0086369943 -0.057088133 0.39650002
-0.0077880779 -0.056597658 0.39600003
0.031599123 -0.056597658 0.39600003
0.032898176 -0.057088658 0.39650002
0.034199346 -0.057580724 0.39700001
-0.0086478861 -0.05590044 0.39700001
-0.0073739816 -0.05495628 0.39625001
0.031279873 -0.054781318 0.39620003
0.03279911 -0.055620395 0.39700001
-0.0063972189 -0.053011037 0.3963334
0.029643729 -0.05268687 0.39600003
0.031118825 -0.053099971 0.39700001
-0.0061274609 -0.051699731 0.39700001
-0.0052828803 -0.050816178 0.39666671
0.029367359 -0.050804384 0.39657146
0.030838778 -0.051699731 0.39700001
-0.0044415765 -0.049536377 0.39650002
-0.0035979499 -0.048217401 0.39600003
0.027408995 -0.048636414 0.39600003
0.028492723 -0.049116839 0.39650002
-0.0031834799 -0.047020189 0.39650002
0.025732944 -0.046541352 0.39600003
0.027024591 -0.04701966 0.39650005
0.028318353 -0.047499023 0.39700001
-0.0027668939 -0.045398667 0.39700001
-0.0019218989 -0.04444629 0.39600003
0.025195923 -0.044623371 0.3963334
0.026918117 -0.045538694 0.39700001
-0.0013657452 -0.042981915 0.39666671
0.023218868 -0.042351224 0.39600003
0.024522526 -0.042850979 0.39675003
-0.0005263089 -0.041303039 0.39666671
0.00059217779 -0.040675171 0.39600003
0.021123804 -0.040675171 0.39600003
0.022814514 -0.041119862 0.39625004
0.024117643 -0.041618031 0.39700001
0.0010115644 -0.039023742 0.39625004
0.019866765 -0.038580108 0.39600003
0.02115972 -0.039064426 0.39666671
0.022857431 -0.039937746 0.39700001
0.001433815 -0.037417322 0.39700001
0.0022682289 -0.036904059 0.39600003
0.019206379 -0.036838684 0.39620003
0.020757077 -0.036997251 0.39700001
0.0029001411 -0.035062451 0.39650005
0.017352689 -0.034808993 0.39600003
0.018960292 -0.034979671 0.39675
0.0039509209 -0.033188015 0.39666671
0.0047823051 -0.032294918 0.39600003
0.017026244 -0.032981645 0.39620003
0.018236652 -0.032796539 0.39700001
0.005065673 -0.030923983 0.3963334
0.015397295 -0.03089821 0.39600003
0.016966011 -0.031096395 0.39675003
0.0056345239 -0.029435972 0.39700001
0.0067968289 -0.028789405 0.39620003
0.0081344079 -0.02810479 0.39600003
0.012743548 -0.02810479 0.39600003
0.014962895 -0.028874338 0.39650005
0.016556367 -0.029856043 0.39700001
0.035304271 -0.082564063 0.40000001
0.03652776 -0.082460858 0.39950001
0.031071818 -0.080024593 0.40000004
0.033611286 -0.080871083 0.40000001
0.034858961 -0.081243783 0.39975002
0.036873572 -0.081023708 0.39866671
0.038496777 -0.080887862 0.39800003
0.01922095 -0.078331612 0.40000001
0.020913932 -0.078331612 0.40000004
0.02300084 -0.078233697 0.39950001
0.025310855 -0.078396358 0.39925
0.027262609 -0.079178102 0.40000001
0.0288832 -0.078980155 0.39900002
0.030916458 -0.078782216 0.39800006
0.033063587 -0.079303369 0.39850003
0.035156462 -0.079691164 0.39833337
0.036812261 -0.079624474 0.39800003
0.043769173 -0.078331612 0.40000001
0.01117929 -0.076638632 0.40000001
0.012855652 -0.076542832 0.39950001
0.015135312 -0.076862268 0.3994
0.017051008 -0.076821849 0.39875001
0.018594671 -0.076946087 0.39866671
0.020843511 -0.07722684 0.39866671
0.022915006 -0.077097699 0.39800003
0.027126295 -0.077939957 0.39800003
0.028389683 -0.077939957 0.39800003
0.04281538 -0.077289999 0.39900002
-0.0032110475 -0.074099161 0.40000001
-0.00024833108 -0.074945651 0.40000001
0.0010214046 -0.074945651 0.40000001
0.0031316958 -0.074820742 0.39933336
0.0052437419 -0.075228371 0.39925003
0.0069248644 -0.075134158 0.39875001
0.0090404069 -0.075602666 0.39900002
0.011123395 -0.075413182 0.39800003
0.01280791 -0.075413182 0.39800003
0.041865811 -0.074992053 0.39800003
-0.010829462 -0.07240618 0.40000001
-0.0091255894 -0.072315671 0.39950001
-0.0068373391 -0.07259997 0.39920002
-0.0050324979 -0.07278879 0.39900002
-0.0031995354 -0.072977975 0.39850003
-0.0013019647 -0.073657028 0.39875004
0.0010162976 -0.073728666 0.39800003
0.0031219423 -0.073728666 0.39800006
0.041865811 -0.072886407 0.39800006
-0.014920833 -0.070995361 0.40000004
-0.01291403 -0.070959315 0.39900005
-0.01078938 -0.071291342 0.39850003
-0.009090798 -0.071201891 0.39800003
0.041865811 -0.070780762 0.39800003
-0.016533066 -0.068765983 0.39974999
-0.015024789 -0.069270387 0.39900002
-0.013723217 -0.069517374 0.39800003
0.041935943 -0.068789445 0.39866671
0.042922683 -0.068596974 0.40000001
-0.016600205 -0.066988967 0.39966667
-0.015407733 -0.066990599 0.39800006
0.041497275 -0.066653103 0.39850003
0.043345928 -0.066903986 0.40000001
-0.015034467 -0.065088473 0.39925003
-0.013723217 -0.064463824 0.39800003
0.041075796 -0.064966291 0.39850006
0.043204844 -0.06535209 0.40000004
-0.014638669 -0.06394127 0.40000001
-0.013413476 -0.062735781 0.39880002
0.039153181 -0.062818214 0.39825001
0.040755626 -0.063015208 0.39950001
0.042076193 -0.06394127 0.40000001
-0.024703566 -0.060750417 0.39850003
-0.012351113 -0.060966842 0.39900002
-0.011196443 -0.060252536 0.39800003
0.037467606 -0.060922075 0.39825001
0.038951445 -0.061109282 0.39920002
0.040383212 -0.061401803 0.40000001
-0.012099197 -0.059708819 0.40000001
-0.011021044 -0.058751434 0.39925
0.03568925 -0.05884878 0.39800006
0.037449222 -0.058942486 0.39940003
0.038690232 -0.059285574 0.40000001
-0.010397545 -0.057121001 0.39966667
-0.0095198937 -0.056930445 0.39833337
0.034808498 -0.056743216 0.39820001
0.036716361 -0.057107493 0.39957145
-0.0091201439 -0.054949634 0.39925003
-0.0078274114 -0.054356731 0.39800003
0.033162482 -0.054637484 0.39800006
0.034815885 -0.054949634 0.39925003
0.036150761 -0.055053122 0.40000001
-0.0087132361 -0.053783387 0.40000001
-0.0076315971 -0.052770413 0.39875001
0.031758714 -0.052672215 0.39800003
0.033064116 -0.053160045 0.39850003
0.034779146 -0.053079303 0.39980003
-0.0065810457 -0.051115807 0.39900002
0.031453729 -0.050870068 0.39840004
0.033146732 -0.051179156 0.39950001
-0.0061737644 -0.049550936 0.40000001
-0.0050287638 -0.048822857 0.39866671
0.029231939 -0.048460927 0.39800003
0.030982247 -0.04898423 0.39883336
0.032764796 -0.049550936 0.40000001
-0.0044770497 -0.046971586 0.39966667
-0.0036161216 -0.04677641 0.39800003
0.029039739 -0.046805263 0.39825001
0.030797277 -0.047081422 0.39957148
-0.0034123713 -0.044965245 0.39875001
0.027266672 -0.044530388 0.39800006
0.028799186 -0.045035467 0.39900002
0.030225327 -0.045318484 0.40000001
-0.0030676429 -0.043306984 0.39966667
-0.0019316054 -0.042565119 0.39800003
0.025862908 -0.042986248 0.39800003
0.027177677 -0.043066986 0.39875004
0.02881451 -0.043343335 0.40000004
-0.0027878024 -0.04193252 0.40000001
-0.0012612585 -0.040794324 0.39880005
0.025150035 -0.040813308 0.398375
0.027164543 -0.041234363 0.39980003
0.028532345 -0.04193252 0.40000001
-0.00052987377 -0.039013114 0.39900002
0.00059516856 -0.038353831 0.39800003
0.022929665 -0.038799051 0.39825001
0.025095051 -0.038888447 0.39916667
0.026839364 -0.039393049 0.40000001
-0.00024833108 -0.037700068 0.40000001
0.00080685463 -0.036737356 0.39875001
0.021651618 -0.037090443 0.39800003
0.023057444 -0.036929473 0.39900002
0.024864219 -0.037135743 0.40000004
0.0014410382 -0.035071287 0.39900002
0.0022825482 -0.034606561 0.39850003
0.019967102 -0.034142539 0.39800003
0.021248624 -0.035013746 0.39833337
0.022922901 -0.034955718 0.3996
0.0027070704 -0.032961234 0.39900002
0.019405596 -0.033019528 0.39800006
0.021041403 -0.032893639 0.39920005
0.022606913 -0.033044372 0.40000001
0.0036375565 -0.031035168 0.39920002
0.018807163 -0.030972464 0.39840004
0.0050230613 -0.02891444 0.39850003
0.034826793 -0.083336219 0.40100002
0.027755069 -0.080224656 0.40100002
0.029027978 -0.080224656 0.40100002
0.031998102 -0.081073262 0.40100002
0.033271011 -0.081497565 0.40100002
0.017147485 -0.078527443 0.40100002
0.018420395 -0.078527443 0.40100002
0.023087732 -0.079376049 0.40100002
0.024784945 -0.079376049 0.40100002
0.0073885079 -0.076830223 0.40100002
0.0090857223 -0.076830223 0.40100002
0.013328755 -0.077678837 0.40100002
0.014177362 -0.077678837 0.40100002
0.043878596 -0.077678837 0.40100002
-0.0061891987 -0.074284405 0.40100002
-0.0049162889 -0.074284405 0.40100002
-0.0027947719 -0.075133011 0.40100002
-0.0015218619 -0.075133011 0.40100002
0.0014482616 -0.075981617 0.40100002
0.0031454749 -0.075981617 0.40100002
0.04302999 -0.075557314 0.40100002
-0.012978053 -0.072587192 0.40100002
-0.0091593228 -0.073435798 0.40100002
-0.0078864126 -0.073435798 0.40100002
0.04302999 -0.072587192 0.40100002
-0.016796783 -0.070465676 0.40100002
-0.015523872 -0.071738586 0.40100002
0.043242142 -0.070677832 0.40100002
-0.018069692 -0.068344161 0.40100002
-0.017221086 -0.069192767 0.40100002
0.043878596 -0.068768464 0.40100002
0.044727203 -0.068344161 0.40100002
-0.018069692 -0.067495555 0.40100002
0.044727203 -0.067071252 0.40100002
-0.016372479 -0.065798342 0.40100002
-0.015523872 -0.06410113 0.40100002
0.043454293 -0.064525433 0.40100002
0.044727203 -0.065798342 0.40100002
-0.014675266 -0.063252516 0.40100002
0.042464253 -0.062969647 0.40100002
-0.013402356 -0.061131004 0.40100002
0.041049909 -0.06098957 0.40100002
-0.01255375 -0.059433788 0.40100002
0.039423414 -0.05879733 0.40100002
0.040484171 -0.059858091 0.40100002
-0.011280839 -0.057312272 0.40100002
0.037938349 -0.056463666 0.40100002
0.038786959 -0.056887969 0.40100002
-0.010432232 -0.05561506 0.40100002
0.037372611 -0.055332195 0.40100002
-0.0091593228 -0.053493544 0.40100002
0.03539253 -0.052220631 0.40100002
0.036524005 -0.053634983 0.40100002
-0.007462109 -0.050947722 0.40100002
0.034826793 -0.05108916 0.40100002
-0.0066135023 -0.04925051 0.40100002
0.033412449 -0.049109079 0.40100002
-0.005340592 -0.047553297 0.40100002
0.031998102 -0.046704691 0.40100002
0.032846708 -0.047553297 0.40100002
-0.0044919853 -0.045007475 0.40100002
0.030866629 -0.04486604 0.40100002
-0.0036433786 -0.042885959 0.40100002
0.029452281 -0.042461656 0.40100002
0.030300889 -0.043734565 0.40100002
-0.0027947719 -0.041188747 0.40100002
-0.0019461652 -0.04034014 0.40100002
0.027755069 -0.04034014 0.40100002
0.028886545 -0.040905878 0.40100002
-0.0010975585 -0.038642924 0.40100002
0.027472202 -0.038925797 0.40100002
-0.00053182075 -0.036945712 0.40100002
0.025209248 -0.036097106 0.40100002
0.026482157 -0.036945712 0.40100002
0.0005996548 -0.035248499 0.40100002
0.024643511 -0.034965631 0.40100002
0.0014482616 -0.033551287 0.40100002
0.024360642 -0.033551287 0.40100002
0.0027211716 -0.031005468 0.40100002
0.033863373 -0.084036134 0.40300003
0.031304855 -0.082330458 0.40300003
0.032969046 -0.0826542 0.4025
0.021497205 -0.080624774 0.40300003
0.023202881 -0.080624774 0.40300003
0.024877127 -0.080524743 0.40250003
0.027007639 -0.080951169 0.40250003
0.029136032 -0.08137653 0.40250003
0.030801814 -0.081275441 0.40200001
0.0074253585 -0.07806626 0.40300003
0.0091310386 -0.07806626 0.40300006
0.012968814 -0.078919098 0.40300003
0.015294855 -0.079034396 0.40250003
0.017233009 -0.079771936 0.40300003
0.018891692 -0.079573996 0.40200001
0.021018501 -0.079574004 0.40200004
-0.024129691 -0.077213421 0.40300003
-0.02282208 -0.07754299 0.4025
-0.0032351306 -0.076360583 0.40300003
-0.0011019135 -0.076234266 0.40233335
0.0010283174 -0.076692268 0.40250003
0.0027347433 -0.077213421 0.40300003
0.0048547653 -0.07702183 0.40200004
0.0065562106 -0.07702183 0.40200001
0.011235187 -0.077872552 0.40200001
0.01251127 -0.077872552 0.40200001
0.043988016 -0.07702183 0.40200001
0.044709183 -0.076951787 0.40275002
-0.012189941 -0.0746549 0.40300003
-0.010910682 -0.0746549 0.40300003
-0.0092050042 -0.0746549 0.40300003
-0.0070636016 -0.0749887 0.4025
-0.0049352078 -0.075414062 0.40250003
-0.0036524641 -0.075320385 0.40200001
0.043137293 -0.074469656 0.40200001
0.044523861 -0.075081319 0.40300003
-0.026688207 -0.073802061 0.40300003
-0.018842086 -0.072437525 0.40300003
-0.01687035 -0.073330387 0.40275002
-0.01515605 -0.073285133 0.4025
-0.013010418 -0.073618934 0.40200004
-0.010883609 -0.073618934 0.40200001
0.043562654 -0.073193572 0.40200001
0.044737071 -0.073162429 0.40300003
-0.018997634 -0.070758559 0.40266669
-0.016980458 -0.07163392 0.40200004
0.043988016 -0.071492128 0.40200001
-0.019155338 -0.06909363 0.40240002
-0.01899693 -0.0674918 0.40266669
-0.017285503 -0.066469833 0.40250003
-0.016724808 -0.064935409 0.40266669
0.043988016 -0.064260982 0.40200001
0.044894509 -0.064766273 0.40250003
-0.024920536 -0.062559538 0.40200001
-0.015291914 -0.062894993 0.40233335
0.043137293 -0.062559538 0.40200001
0.044097442 -0.063141577 0.40300003
-0.024069814 -0.061283451 0.40200001
-0.014748459 -0.061862316 0.40300003
-0.013878379 -0.060507365 0.40250003
0.041435849 -0.060007364 0.40200001
0.042690825 -0.061119068 0.40260002
0.044097442 -0.061862316 0.40300003
-0.012737631 -0.058637839 0.40233335
0.041036259 -0.058767539 0.40224999
0.042391762 -0.058877379 0.40300003
-0.012174817 -0.057100236 0.40250003
-0.011308971 -0.056604475 0.40200001
0.039734401 -0.057029836 0.40200001
0.041087266 -0.057135969 0.40275002
-0.010904178 -0.055005461 0.40275002
0.039014727 -0.054830566 0.40224999
0.040686086 -0.055466022 0.40300003
-0.0093319174 -0.052677847 0.40233335
0.036898661 -0.052634433 0.40200004
0.038530335 -0.05287442 0.40275002
-0.0087785842 -0.051201828 0.40300003
-0.0079060784 -0.050649412 0.40200001
0.03548079 -0.050649412 0.40200001
0.036825716 -0.051169802 0.40275002
0.038127568 -0.051628247 0.40300003
-0.0070646605 -0.048796166 0.4025
0.033779345 -0.048097245 0.40200001
0.035084851 -0.048988204 0.40233335
0.036421888 -0.049496148 0.40300003
-0.0062200674 -0.04693763 0.40300003
-0.0053539099 -0.046395797 0.40200001
0.033523783 -0.046717845 0.40233335
0.034716211 -0.04693763 0.40300003
-0.0053605689 -0.045175306 0.40250003
0.032791663 -0.045249682 0.40240002
-0.0047247983 -0.043285798 0.40275002
-0.0036524641 -0.042142183 0.40200001
0.030902421 -0.042843726 0.40219998
0.032370903 -0.043313064 0.40300003
-0.0032316456 -0.040917456 0.40250003
0.029525729 -0.040440738 0.40200001
0.030859545 -0.040942077 0.40275002
-0.002808711 -0.039688498 0.40300003
-0.0019510186 -0.039164655 0.40200001
0.029100368 -0.039164655 0.40200001
0.030452015 -0.039262079 0.40300003
-0.0013864002 -0.037099272 0.40266669
0.027611602 -0.036825169 0.40200001
0.029073207 -0.037281703 0.40280005
-0.00024988316 -0.034953933 0.40250003
0.00060115015 -0.034485679 0.40200001
0.025272116 -0.034485679 0.40200001
0.026996633 -0.034939989 0.40233335
0.00088572141 -0.033122882 0.40266669
0.0014536788 -0.031546809 0.40250003
0.0023025961 -0.030657426 0.40200001
0.031460214 -0.084453188 0.40500003
0.032575674 -0.084669374 0.40466666
0.026746318 -0.082739048 0.40500003
0.028840741 -0.082602851 0.40433335
0.030863646 -0.083242327 0.40466672
0.032237489 -0.083389699 0.40400001
0.013033174 -0.08016783 0.40500003
0.01687539 -0.080958217 0.40466666
0.018985681 -0.080824837 0.40400001
0.020721734 -0.081353404 0.40450001
0.022889495 -0.08188197 0.40500006
0.024970368 -0.081679791 0.40400001
0.026252802 -0.081679791 0.40400001
0.0010341723 -0.07845369 0.40500003
0.0027443934 -0.078356832 0.40450001
0.0048789177 -0.078259967 0.40400001
0.0068853921 -0.078960493 0.40466666
0.0087478161 -0.07931076 0.40500003
0.010863605 -0.079114929 0.40400001
0.014710905 -0.079969883 0.40400001
-0.024617042 -0.076550059 0.40400001
-0.02290713 -0.076550059 0.40400001
-0.021356851 -0.07689821 0.40433335
-0.0071028634 -0.076676384 0.40466666
-0.00481431 -0.076898918 0.40433335
-0.0032511856 -0.077596612 0.40500003
-0.0011073876 -0.077468887 0.40433335
0.00060414098 -0.077405013 0.40400001
-0.02487353 -0.075182132 0.40400001
-0.02290713 -0.075267628 0.40400001
-0.021210074 -0.07531447 0.40425003
-0.019098796 -0.075423062 0.40483338
-0.016943917 -0.074932776 0.40450001
-0.015212533 -0.074840151 0.40400001
-0.013265555 -0.075465553 0.40460005
-0.010964829 -0.075882472 0.40500003
-0.0092278458 -0.075695105 0.40400001
-0.0079454128 -0.075695105 0.40400001
-0.026820656 -0.073311254 0.40500003
-0.024945399 -0.073259473 0.40412503
-0.02290713 -0.073130235 0.40400001
-0.02119722 -0.073130243 0.40400001
-0.019273572 -0.073771447 0.40400001
-0.02424944 -0.071597114 0.40500003
-0.022936013 -0.071080714 0.40450001
-0.02119722 -0.07099285 0.40400001
-0.022866998 -0.069162801 0.40480003
-0.021206144 -0.068883523 0.4041667
-0.019083951 -0.066800646 0.40450001
-0.01824994 -0.065597609 0.40500003
-0.017349921 -0.064580686 0.40400001
0.045916777 -0.064580686 0.40400001
-0.024189563 -0.062870778 0.40400001
-0.016807877 -0.063545197 0.40466672
-0.015640011 -0.06201582 0.40400001
0.045275562 -0.06308452 0.40400001
0.046030432 -0.062597863 0.40500003
-0.015095145 -0.060976103 0.40466672
0.043351911 -0.060305912 0.40400001
0.04469011 -0.060808554 0.40450001
0.046030432 -0.061312255 0.40500003
-0.014821652 -0.059598111 0.40500003
-0.0139301 -0.059023477 0.40400001
0.043351911 -0.059023477 0.40400001
0.044316288 -0.059598111 0.40500003
-0.013094987 -0.056970574 0.40459999
0.041641999 -0.056031134 0.40400001
0.042978086 -0.056956492 0.40450001
-0.012250437 -0.055312753 0.40500003
-0.011365234 -0.054321222 0.40400001
0.041357018 -0.05460621 0.40400001
0.042602144 -0.054884218 0.40500003
-0.010813314 -0.053268805 0.40466672
0.039932087 -0.053038791 0.40400001
0.041291296 -0.053136989 0.40474999
-0.010536294 -0.051884469 0.40500003
-0.0093783047 -0.050943401 0.40433335
0.037367221 -0.050046448 0.40400001
0.038773842 -0.050780386 0.40440002
0.040316623 -0.05159878 0.40500006
-0.0088221515 -0.049313251 0.40500003
-0.0079552457 -0.048823833 0.40450001
0.03711307 -0.048661403 0.40433335
0.038602479 -0.049027562 0.40500006
-0.0073878481 -0.047274243 0.40466666
0.035657313 -0.047054105 0.40400001
0.037008584 -0.047141191 0.40474999
-0.0064574871 -0.045186043 0.40450001
0.033947401 -0.044489235 0.40400001
0.035273612 -0.0449716 0.40450001
0.036602642 -0.045884967 0.40500003
-0.0053872056 -0.042831741 0.40450001
0.033377431 -0.042921823 0.40400001
0.034602813 -0.042742372 0.40500006
-0.0045311921 -0.041119713 0.40450001
-0.0036706359 -0.040641937 0.40400001
0.032685444 -0.041094564 0.40425003
0.034031428 -0.041171074 0.40500003
-0.0031060174 -0.038996272 0.40466666
0.031168796 -0.038718287 0.40400001
0.032644153 -0.039180111 0.40480003
-0.0028226499 -0.037314251 0.40500003
-0.0019631516 -0.036839649 0.40450001
-0.001393285 -0.035285115 0.40466666
-0.00025122828 -0.033001002 0.40466666
0.00060414098 -0.032092385 0.40400001
0.03075427 -0.086592846 0.40700001
0.025586445 -0.08400894 0.40700001
0.026447749 -0.08400894 0.40700001
0.029189233 -0.085173056 0.40680003
0.030990291 -0.085304722 0.40633339
0.016973404 -0.082286328 0.40700001
0.01907967 -0.082084149 0.40600002
0.020368451 -0.082084149 0.40600002
0.023002535 -0.08314763 0.40700001
0.025093984 -0.082943335 0.40600002
0.027241955 -0.083802521 0.40600002
0.02896033 -0.083802521 0.40600002
0.0070684077 -0.080563724 0.40700001
0.0087910155 -0.080563724 0.40700001
0.011139434 -0.080630586 0.40625003
0.013097536 -0.081425026 0.40700001
0.014783731 -0.081224956 0.40600002
-0.004559197 -0.078841113 0.40700001
-0.0032672412 -0.078841113 0.40700001
-0.0011112439 -0.078647397 0.40600002
0.0010392792 -0.079702415 0.40700001
0.0027579651 -0.079604499 0.40650001
0.0049030706 -0.079506591 0.40600002
-0.020468675 -0.077454418 0.40650001
-0.018770713 -0.077118501 0.40700001
-0.017027162 -0.076594166 0.40650001
-0.015052045 -0.076699033 0.40660006
-0.012741586 -0.077118501 0.40700001
-0.010991904 -0.076929018 0.40600002
-0.0090288417 -0.077559493 0.4066
-0.0067047402 -0.077884004 0.40650001
-0.005407183 -0.077788204 0.40600002
-0.026909657 -0.072692715 0.40633339
-0.026945978 -0.071069732 0.4068889
-0.024837226 -0.070777379 0.40620002
-0.02652245 -0.069366768 0.40700001
-0.024754407 -0.068808824 0.40625003
-0.023450127 -0.068337142 0.40600002
-0.022646582 -0.067644157 0.40700001
-0.021076096 -0.06706132 0.4066
-0.02436919 -0.064198941 0.40700001
-0.020349771 -0.065634452 0.40700001
-0.018829381 -0.064792082 0.40640002
-0.01834006 -0.063337639 0.40700001
-0.017163731 -0.062660396 0.40633339
-0.016617455 -0.06118438 0.40700001
-0.015717437 -0.060604457 0.40600002
0.046755474 -0.060940608 0.40633339
-0.015316349 -0.058994859 0.40674999
0.044748582 -0.05893372 0.40633339
-0.014464194 -0.056877859 0.40700001
-0.013999061 -0.057167705 0.40600002
0.04453513 -0.056877859 0.40700001
-0.012864267 -0.054921355 0.40633339
0.043566525 -0.055019736 0.40600002
-0.012310933 -0.053432643 0.40700001
-0.011435564 -0.052506223 0.40650001
0.041848149 -0.052012578 0.40600002
0.042975258 -0.053151671 0.40650001
-0.010575318 -0.050785735 0.40650001
-0.0097031221 -0.050294202 0.40600002
0.041181412 -0.050662648 0.40620002
0.042812523 -0.051279385 0.40700001
-0.009424693 -0.048902106 0.40633339
0.039270584 -0.048575826 0.40600002
0.040878125 -0.049163975 0.4066
-0.0085786162 -0.046972863 0.40700001
-0.0079847462 -0.04685745 0.40600002
0.038965598 -0.047075033 0.40640002
0.040515713 -0.047547065 0.40700001
-0.008004413 -0.045250256 0.40700001
-0.0071255588 -0.044709481 0.40600002
0.037208539 -0.044967238 0.40600005
0.038697679 -0.045221929 0.40674999
-0.0065586171 -0.043169957 0.40633339
0.035833836 -0.042991105 0.40600002
0.037191454 -0.043070257 0.40674999
-0.0062818048 -0.04180504 0.40700001
-0.0054138419 -0.041323029 0.40650001
0.035525464 -0.041054793 0.40640002
0.036783397 -0.041374385 0.40700001
-0.004553596 -0.039602537 0.40650001
-0.0036888074 -0.038695164 0.40600002
0.034766387 -0.039165758 0.40642864
-0.0032637564 -0.037022859 0.40650001
-0.002836589 -0.035775911 0.40700001
-0.0019728583 -0.034441061 0.40650001
-0.0011121563 -0.033136927 0.40633339
0.027010482 -0.086585596 0.40900001
0.02894415 -0.087193951 0.40820003
0.021384494 -0.084421761 0.40900001
0.023096023 -0.084352955 0.4086667
0.025249034 -0.084751323 0.40850002
0.027088344 -0.085366569 0.40800005
0.028239571 -0.085942186 0.40800002
0.011863593 -0.082690686 0.40900001
0.013145277 -0.082589597 0.40850002
0.015012952 -0.082844406 0.40833336
0.017056812 -0.08355622 0.40900001
0.019173659 -0.083351925 0.40800002
0.020900499 -0.083351925 0.40800002
-0.014535271 -0.080094077 0.40900001
-0.0050143693 -0.080094077 0.40900001
-0.0032832962 -0.080094077 0.40900001
-0.00025391852 -0.080959611 0.40900001
0.0010443863 -0.080959611 0.40900001
0.0027686732 -0.080761664 0.40800002
0.0051466273 -0.081027538 0.40825
0.0071031414 -0.081825152 0.40900001
0.0088228853 -0.081725121 0.40850002
0.010539455 -0.081625082 0.40800002
-0.020161258 -0.078363001 0.40900001
-0.018862952 -0.078363001 0.40900001
-0.017121673 -0.078747869 0.40875
-0.014949741 -0.078699976 0.40850005
-0.012788544 -0.078699976 0.40850002
-0.011059589 -0.078699976 0.40850002
-0.0089027286 -0.079163969 0.4086667
-0.00672895 -0.07903482 0.40800002
-0.0054338193 -0.07903482 0.40800002
-0.001116718 -0.079898253 0.40800005
-0.024429066 -0.066946946 0.40800005
-0.023220276 -0.066774249 0.40800005
-0.021838805 -0.066083521 0.40800002
-0.024921708 -0.065379947 0.40900001
-0.023190636 -0.06494718 0.40900001
-0.021169057 -0.064765148 0.40840003
-0.023161758 -0.063138828 0.40850002
-0.02081041 -0.063432492 0.40900001
-0.018976463 -0.062968813 0.40833336
-0.023565646 -0.06176642 0.40800002
-0.018718697 -0.061629295 0.40900001
-0.017316585 -0.060723934 0.40825
0.046860993 -0.060113154 0.40850002
-0.016699111 -0.058888428 0.40900001
-0.015794864 -0.05831274 0.40800002
0.045563746 -0.058815911 0.40850002
0.046485052 -0.059321195 0.40900001
-0.015532865 -0.056966871 0.4086667
-0.014310267 -0.055175751 0.40875
0.044681035 -0.054903172 0.40833336
-0.012927583 -0.053175628 0.40833336
0.043781135 -0.052700508 0.40800002
-0.012371429 -0.051531367 0.40900001
-0.011477762 -0.050973669 0.40800002
0.043564867 -0.050913051 0.4086667
-0.010843733 -0.049090791 0.40850002
0.042960212 -0.049035657 0.40840003
-0.0095470147 -0.046929598 0.40850002
0.040903069 -0.046512663 0.40800005
0.042347983 -0.047174305 0.40875003
-0.008614216 -0.044859238 0.4086667
0.039464034 -0.044498015 0.40800002
0.040809646 -0.044984788 0.40850002
0.042157371 -0.045472611 0.40900001
-0.0080437474 -0.043308772 0.40900001
-0.0071694353 -0.042390823 0.40850002
0.039157357 -0.042985369 0.40840003
0.040426295 -0.043308772 0.40900001
-0.0062972396 -0.041044336 0.40800002
-0.0054338193 -0.040180914 0.40800002
0.03752134 -0.040828481 0.40800002
-0.0051548919 -0.038805418 0.4086667
-0.0045816014 -0.037250012 0.40900001
-0.0037069789 -0.036727231 0.40800002
-0.003281554 -0.035064727 0.40875
0.025837908 -0.088313654 0.41100001
0.026953574 -0.088460326 0.41033337
0.025117368 -0.086837761 0.41060004
0.026642693 -0.087231122 0.41000003
0.014965797 -0.084834576 0.41100001
0.017125612 -0.084765777 0.4106667
0.019267645 -0.084628165 0.41000003
0.021029094 -0.085166261 0.41050002
0.022793718 -0.085704349 0.41100001
0.024473563 -0.085495815 0.41000003
-0.01457081 -0.082025208 0.41000003
-0.012850627 -0.082125239 0.41050002
-0.002864467 -0.082225271 0.41100001
-0.0011249292 -0.082225278 0.41100001
0.0010476874 -0.082125239 0.41050002
0.0027822452 -0.082025208 0.41000003
0.0047850921 -0.082667105 0.41060001
0.007137876 -0.083095044 0.41100001
0.0088660847 -0.082993954 0.41050002
0.01103892 -0.083428837 0.41050005
0.013209639 -0.083862662 0.41050002
0.014495557 -0.083760515 0.41000003
-0.018520309 -0.080485731 0.41100001
-0.017173767 -0.080723725 0.41000003
-0.015221548 -0.080940634 0.41000003
-0.012835504 -0.080723725 0.41000003
-0.011106702 -0.080773219 0.41025001
-0.0089419587 -0.080822706 0.41050005
-0.006770181 -0.080822706 0.41050005
-0.0050388891 -0.081355505 0.41100001
-0.0032913238 -0.08115755 0.41000003
-0.0015560184 -0.08115755 0.41000003
-0.018475248 -0.07942225 0.41000003
-0.02281351 -0.062069193 0.41000003
-0.021251736 -0.062416255 0.41000006
-0.022869153 -0.061350815 0.41100001
-0.02091217 -0.06113337 0.41100001
-0.019069409 -0.06067216 0.41033337
-0.018795213 -0.059273005 0.4106667
-0.017607594 -0.05903241 0.41000003
0.047147252 -0.059176393 0.41100001
-0.017120512 -0.05714776 0.41080004
0.045731056 -0.057297103 0.41000003
0.046712365 -0.057001971 0.41100001
-0.015457289 -0.055194676 0.41050002
0.045768239 -0.055172086 0.41033337
0.046712365 -0.055262432 0.41100001
-0.014154224 -0.053022895 0.41050002
-0.01326933 -0.052525014 0.41000003
0.044972826 -0.053522892 0.41100001
-0.012990901 -0.051120222 0.41033337
-0.012416801 -0.049548052 0.41050002
-0.011548091 -0.048679341 0.41050002
0.043995749 -0.048620574 0.41000003
0.044972826 -0.048739165 0.41100001
-0.010973639 -0.047106117 0.4106667
0.043706533 -0.046740662 0.41000003
0.044972826 -0.046999626 0.41100001
-0.010692388 -0.045694973 0.41100001
-0.0098106693 -0.045204498 0.41050002
0.042873945 -0.04504171 0.41033337
0.044103056 -0.045260087 0.41100001
-0.0086491108 -0.043015778 0.41033337
0.041175876 -0.042763922 0.41000003
-0.0080830809 -0.041346129 0.41100001
-0.0069123935 -0.040699922 0.41033337
-0.0063358257 -0.03912352 0.41050002
-0.0051756776 -0.036937274 0.41033337
0.023341635 -0.088743404 0.41300002
0.024890115 -0.089181438 0.41260001
0.01372762 -0.086121403 0.41300002
0.015038623 -0.086121403 0.41300002
0.018971629 -0.086995408 0.41300005
0.021130491 -0.086890079 0.41250002
0.022876905 -0.087327078 0.41250002
0.024157004 -0.08765664 0.41200003
-0.0085594151 -0.0843734 0.41300002
-0.0068114121 -0.0843734 0.41300002
-0.0050634095 -0.0843734 0.41300002
-0.0028784061 -0.0843734 0.41300005
-0.00069340249 -0.0843734 0.41300002
0.0010546003 -0.0843734 0.41300002
0.0028026029 -0.0843734 0.41300002
0.0049876068 -0.0843734 0.41300005
0.007163397 -0.084271252 0.41250002
0.0088990126 -0.084169097 0.41200003
0.010880922 -0.084977821 0.41275001
0.013258439 -0.085040987 0.41200003
0.016745979 -0.085912868 0.41200003
0.018925695 -0.085912868 0.41200003
0.020669464 -0.085912868 0.41200003
-0.011167883 -0.082962364 0.41250002
-0.008985525 -0.082962364 0.41250002
-0.0068031661 -0.082962364 0.41250002
-0.0050572795 -0.082962364 0.41250002
-0.003458045 -0.083141379 0.41266668
-0.0011276663 -0.083297215 0.41200003
0.0010520468 -0.083297215 0.41200003
0.0027958171 -0.083297215 0.41200003
-0.018565368 -0.081553444 0.41200003
-0.020309139 -0.079809673 0.41200003
-0.019437253 -0.079809673 0.41200003
-0.022944048 -0.060677256 0.41233337
-0.021181025 -0.060628202 0.41200003
-0.022864496 -0.059118472 0.41287503
-0.020761868 -0.058931366 0.41233334
-0.019146625 -0.058303174 0.41200003
0.047697902 -0.058448486 0.41200003
-0.020649768 -0.056988016 0.41300005
-0.019036166 -0.056807678 0.41275001
-0.017693484 -0.056268774 0.41200003
0.047697902 -0.056704715 0.41200003
-0.018610431 -0.055531349 0.41300002
-0.017289221 -0.055060729 0.41275001
-0.015949715 -0.054525003 0.41200003
0.047697902 -0.055396888 0.41200003
-0.015449389 -0.053032476 0.41260004
0.045082245 -0.052781235 0.41200003
0.046065673 -0.053783346 0.41300002
-0.014228932 -0.05111935 0.41266668
-0.013334059 -0.050165579 0.41200003
0.045082249 -0.051037468 0.41200003
-0.013054218 -0.048751615 0.41233337
0.045954131 -0.048421808 0.41200003
0.046502672 -0.048976339 0.41300002
-0.012492422 -0.047665335 0.41300002
-0.011590288 -0.046678036 0.41200003
0.045954131 -0.047113977 0.41200003
0.046939675 -0.047228336 0.41300002
-0.011027081 -0.045006976 0.41266668
-0.0098465178 -0.044062383 0.41200003
0.045082245 -0.044934269 0.41200003
-0.0095638568 -0.04264348 0.41233337
-0.0086985268 -0.040931832 0.41266668
-0.0081224144 -0.039799325 0.41300002
-0.0072367131 -0.038861781 0.41233337
-0.006364122 -0.037116606 0.41233337
-0.0054870923 -0.036215417 0.41200003
0.020870138 -0.09202908 0.41600001
-0.0020141113 -0.090051383 0.41500002
0.019696338 -0.09056183 0.41600001
0.021346908 -0.090753973 0.41500002
0.022832211 -0.0910763 0.41433334
0.024274271 -0.090710513 0.41400003
-0.0027166985 -0.088646211 0.41500002
-0.0011386144 -0.088947847 0.41600001
0.013827337 -0.088507675 0.41600001
0.015147862 -0.088507675 0.41600001
0.016867917 -0.088294916 0.41500002
0.019070452 -0.088770203 0.41516671
0.021207862 -0.088520221 0.41400003
0.022814076 -0.089542352 0.41400003
-0.0085801398 -0.086329922 0.41400003
-0.0068279048 -0.086329922 0.41400003
-0.0050784703 -0.08682064 0.41425002
-0.0028908309 -0.086942814 0.41483337
-0.00069707091 -0.087082356 0.41550002
0.0010622607 -0.086746976 0.41600001
0.002822961 -0.086746976 0.41600001
0.0050238366 -0.086746976 0.41600001
0.0072247116 -0.086746976 0.41600001
0.0089638121 -0.086538449 0.41500002
0.010726473 -0.087030753 0.41525
0.012728192 -0.086981975 0.41460004
0.015075036 -0.087206043 0.41400003
0.01682727 -0.087206043 0.41400003
-0.011080522 -0.085006624 0.41466671
-0.009237228 -0.085234776 0.41400003
-0.0068279048 -0.085453808 0.41400003
-0.0050756698 -0.085453808 0.41400003
-0.0028853759 -0.085453808 0.41400003
-0.00069539191 -0.085557014 0.41450003
0.0010597073 -0.085660212 0.41500002
0.0028161749 -0.085660212 0.41500002
0.0050030029 -0.085522614 0.41433334
0.007189977 -0.085453808 0.41400003
0.0089422129 -0.085453808 0.41400003
-0.019531609 -0.081073217 0.41400003
-0.025664434 -0.067055337 0.41400003
-0.023912199 -0.058294162 0.41400003
-0.02288354 -0.057122655 0.41440001
-0.021283844 -0.056541923 0.41400003
-0.022542624 -0.055596456 0.41566667
-0.02089614 -0.054920625 0.41500002
-0.019209046 -0.054693025 0.41459998
0.047110155 -0.054416746 0.41450003
0.048045218 -0.054922033 0.41500002
-0.020506317 -0.052853502 0.41600001
-0.019185791 -0.052853502 0.41600001
-0.017177816 -0.052984592 0.41457143
0.046344519 -0.052790504 0.41550002
-0.020799767 -0.051239528 0.41600001
-0.019185791 -0.0510928 0.41600001
-0.016965207 -0.051031213 0.41550002
-0.015151022 -0.050847158 0.41400003
0.046728395 -0.05097051 0.41500002
0.048160993 -0.050652623 0.41600001
-0.020946492 -0.049772274 0.41600001
-0.019185791 -0.049772274 0.41600001
-0.016764827 -0.049552187 0.41600001
-0.014836748 -0.048949193 0.41500002
0.047491387 -0.049094923 0.41400003
0.048160993 -0.049772274 0.41600001
-0.014326625 -0.047513694 0.41550002
-0.013067759 -0.046796542 0.41460004
0.047929447 -0.047780748 0.41400003
-0.012866533 -0.045040719 0.41566667
-0.011646551 -0.044714339 0.41400003
-0.011229591 -0.043039665 0.41475004
-0.010809457 -0.04135865 0.41550002
-0.0099182157 -0.040868878 0.41500005
-0.008894315 -0.038966745 0.41500002
0.020037841 -0.092691526 0.41700003
-0.0011413514 -0.090485364 0.41700003
0.018714141 -0.090926602 0.41700003
-0.00025888515 -0.088720433 0.41700003
0.011213177 -0.088720433 0.41700003
0.012536876 -0.088720433 0.41700003
0.015625509 -0.089602903 0.41700003
0.016949207 -0.089602903 0.41700003
0.00062358117 -0.087837964 0.41700003
0.0076833116 -0.087837964 0.41700003
0.0090070106 -0.087837964 0.41700003
-0.024085475 -0.056951649 0.41700003
-0.022908852 -0.054598413 0.41700003
0.04827676 -0.054304253 0.41700003
-0.022761773 -0.05298055 0.41700003
-0.021438075 -0.05298055 0.41700003
0.047394294 -0.05298055 0.41700003
0.04827676 -0.05298055 0.41700003
-0.022614699 -0.051362701 0.41700003
-0.021438075 -0.050774388 0.41700003
0.04827676 -0.051656853 0.41700003
-0.022320544 -0.049009454 0.41700003
-0.020996843 -0.048568223 0.41700003
-0.01923191 -0.048568223 0.41700003
-0.017202238 -0.048479974 0.41700003
-0.016143279 -0.047244523 0.41700003
-0.014966657 -0.046656214 0.41700003
-0.014378347 -0.045479588 0.41700003
-0.01349588 -0.044597123 0.41700003
