# .PCD v0.7 - Point Cloud Data file format
VERSION 0.7
FIELDS x y z
SIZE 4 4 4
TYPE F F F
COUNT 1 1 1
WIDTH 1280
HEIGHT 1
VIEWPOINT 0 0 0 1 0 0 0
POINTS 1280
DATA ascii
-0.064111196 0.019485556 0.15100001
-0.062908515 0.019411918 0.15100002
-0.061042402 0.019213395 0.15100001
-0.058981992 0.019206356 0.15100001
-0.056931902 0.019166473 0.15100001
-0.05501743 0.019326014 0.15100001
-0.053122897 0.019266188 0.15100001
-0.051057089 0.019344786 0.15100001
-0.048954923 0.019645091 0.15100001
-0.047040444 0.019645091 0.15100001
-0.044966422 0.019744806 0.15100001
-0.04302536 0.019778045 0.15100002
-0.040850293 0.019836543 0.15100001
-0.03906345 0.019804634 0.15100002
-0.037707362 0.019884404 0.15100001
-0.062994428 0.021080958 0.15100001
-0.061079938 0.021080956 0.15100001
-0.059005927 0.021080954 0.15100001
-0.056931902 0.02108096 0.15100001
-0.055017427 0.02108096 0.15100001
-0.053102948 0.021080954 0.15100001
-0.051085241 0.020912038 0.15100001
-0.048954919 0.020921418 0.15100001
-0.047040436 0.020921422 0.15100001
-0.044926539 0.021041069 0.15100001
-0.042892408 0.021080954 0.15100001
-0.040977921 0.021080958 0.15100001
-0.039063454 0.02108096 0.15100001
-0.037556689 0.020885959 0.15100001
-0.062689856 0.022429788 0.15100002
-0.061079938 0.022516809 0.15100001
-0.059079561 0.022344999 0.15100002
-0.056931905 0.022197731 0.15100002
-0.054857891 0.022197731 0.15100001
-0.053741112 0.022197731 0.15100001
-0.044487804 0.022197731 0.15100001
-0.042892408 0.022197731 0.15100002
-0.062535554 0.017965458 0.15300001
-0.061565638 0.017965458 0.15300001
-0.058655888 0.017965458 0.15300001
-0.057039358 0.017965458 0.15300001
-0.063185662 0.018472407 0.15244444
-0.060952969 0.018257374 0.15219998
-0.058914907 0.018222764 0.15200001
-0.056792792 0.018224321 0.152125
-0.055151768 0.018398758 0.15245453
-0.052926667 0.018332943 0.15224999
-0.050865699 0.018727003 0.15242858
-0.049119279 0.01908345 0.15224999
-0.046950981 0.019043067 0.15245453
-0.045163028 0.019223196 0.15235715
-0.042886239 0.019215986 0.15231819
-0.041002609 0.019220719 0.15227778
-0.03893365 0.019265864 0.15207691
-0.03705395 0.01932434 0.15224998
-0.034944564 0.019233009 0.15222576
-0.032939281 0.019266149 0.15203997
-0.030996744 0.019308869 0.15212497
-0.029043984 0.019293403 0.15199998
-0.027116826 0.019293401 0.15199998
-0.025029071 0.019293403 0.15199998
-0.022953548 0.019303715 0.15208331
-0.02100761 0.019308783 0.15228002
-0.019081166 0.019371733 0.15234785
-0.017261505 0.019609613 0.1525
-0.050885089 0.021702349 0.15200001
-0.036723409 0.020957768 0.15199998
-0.034986049 0.020899367 0.15199997
-0.032898292 0.020899368 0.15199997
-0.030971136 0.02089937 0.15199997
-0.029043976 0.020899365 0.15199997
-0.027116824 0.020899361 0.15199997
-0.025029073 0.02089937 0.15199997
-0.022941323 0.020899361 0.15199997
-0.021014165 0.02089937 0.15199997
-0.019087009 0.020899365 0.15199997
-0.017162839 0.020903338 0.15202774
-0.06421458 0.022665929 0.15200001
-0.063192606 0.02349811 0.15199998
-0.06093283 0.023573644 0.15199998
-0.058865495 0.023407144 0.15199998
-0.056987751 0.023308314 0.15199998
-0.055104397 0.02322071 0.15199997
-0.052926958 0.023140069 0.15199997
-0.050885092 0.022987116 0.15199997
-0.048957929 0.022987114 0.15199997
-0.04703078 0.022987124 0.15199997
-0.045166884 0.023210986 0.15199997
-0.042989094 0.023281546 0.15199997
-0.040928114 0.023147719 0.15199997
-0.039000962 0.023147712 0.15199997
-0.037073798 0.022987118 0.15199997
-0.034986041 0.022987118 0.15199995
-0.032898292 0.02298712 0.15199997
-0.03097114 0.022987118 0.15199997
-0.029043978 0.02298712 0.15199997
-0.027116828 0.02298712 0.15199997
-0.025029067 0.022987122 0.15199995
-0.022941321 0.022987127 0.15199997
-0.021046285 0.022938939 0.15199997
-0.019031812 0.022903165 0.15225637
-0.017539168 0.022730356 0.15266667
-0.064425811 0.025480133 0.1525
-0.063067473 0.025051929 0.15199997
-0.061002646 0.025074868 0.15199997
-0.058914907 0.025074875 0.15199997
-0.056987751 0.025074875 0.15199997
-0.055060599 0.025074871 0.15199997
-0.052972838 0.025074868 0.15199997
-0.050923608 0.025033021 0.15208821
-0.048957694 0.0249479 0.15220001
-0.047028001 0.0249479 0.1522
-0.045098297 0.024947906 0.15220001
-0.043007802 0.024947898 0.1522
-0.040937562 0.024915313 0.15213792
-0.03902103 0.024974504 0.15199997
-0.037084337 0.024967542 0.15219355
-0.034998141 0.024925057 0.15217645
-0.032962911 0.024964502 0.15229999
-0.030989561 0.025017481 0.15243751
-0.028980641 0.025000092 0.15251614
-0.027029883 0.025013883 0.15260004
-0.025040662 0.02498759 0.15262504
-0.023092251 0.025078187 0.15300004
-0.020939715 0.025001612 0.153
-0.018889274 0.024916533 0.15300001
-0.017676879 0.02475488 0.15300001
-0.064637043 0.026048103 0.15300001
-0.063030027 0.027207166 0.152925
-0.060934011 0.027114455 0.1528684
-0.05900418 0.027207572 0.15294118
-0.057041086 0.02712919 0.15278378
-0.055095419 0.027154008 0.15277143
-0.053015765 0.027136285 0.15281393
-0.05086787 0.027036957 0.15292682
-0.048956726 0.027018031 0.153
-0.047016874 0.027018022 0.153
-0.045077056 0.027018026 0.153
-0.042975541 0.027018033 0.15299997
-0.040874071 0.027018026 0.153
-0.038901903 0.027066523 0.153
-0.036994401 0.027018031 0.153
-0.035054564 0.027018026 0.153
-0.033114728 0.02701802 0.153
-0.031013245 0.027018031 0.15299997
-0.028911751 0.027018027 0.153
-0.026971919 0.027018026 0.153
-0.025032084 0.027018026 0.153
-0.023111964 0.026994361 0.15299998
-0.020990763 0.026856372 0.153
-0.01908032 0.02656245 0.15300006
-0.064443059 0.029475147 0.15300001
-0.063020505 0.029119506 0.153
-0.060919035 0.029119516 0.15300001
-0.059019603 0.029018473 0.15300003
-0.057039369 0.028957857 0.15300004
-0.055149265 0.028858379 0.15300007
-0.052957632 0.029079095 0.153
-0.05094273 0.028911669 0.15300006
-0.048956718 0.028796203 0.15300006
-0.047016881 0.0287962 0.15300006
-0.045077045 0.028634548 0.15300004
-0.043114115 0.028495993 0.15300003
-0.040874071 0.028311249 0.15300001
-0.038934235 0.028472899 0.15300001
-0.036994401 0.028311249 0.15300001
-0.034839027 0.028526783 0.15300001
-0.033162277 0.028615532 0.15300003
-0.031013245 0.028472902 0.15300003
-0.028911758 0.0284729 0.15300001
-0.026971921 0.0284729 0.15300001
-0.02519374 0.028392073 0.15300001
-0.062912747 0.030520499 0.15300004
-0.061134562 0.03046662 0.15300001
-0.062983952 0.01771708 0.15483333
-0.061224062 0.017790886 0.15499999
-0.059183247 0.017849708 0.15480001
-0.056971855 0.017678645 0.15450001
-0.055492248 0.017872769 0.155
-0.036822923 0.017872769 0.155
-0.063188352 0.018164236 0.15400001
-0.060829062 0.018082881 0.15400003
-0.059852805 0.018082881 0.15400001
-0.0562732 0.018082881 0.15400001
-0.054940291 0.018126912 0.154375
-0.053181719 0.018082881 0.15400001
-0.050773978 0.018651366 0.15440001
-0.048867878 0.018751875 0.15457895
-0.04693513 0.018472789 0.15470588
-0.04521019 0.018699396 0.1545625
-0.043162931 0.018715 0.15444444
-0.040851869 0.018906308 0.15474999
-0.039052397 0.018660767 0.15474999
-0.037002094 0.01846589 0.15463158
-0.035125736 0.018447058 0.15460001
-0.032902461 0.018768474 0.15428574
-0.030768555 0.018579308 0.15475
-0.029115122 0.018569283 0.15457144
-0.02699079 0.018638697 0.15446155
-0.024951024 0.01863078 0.15450002
-0.022934908 0.018597664 0.15453847
-0.021071604 0.018500799 0.15477778
-0.019074993 0.018630514 0.15450001
-0.017342757 0.019076213 0.15458335
-0.016960852 0.023339994 0.15433335
-0.017055169 0.025108449 0.15436366
-0.018710561 0.027496785 0.15400003
-0.017271552 0.026996607 0.15434484
-0.055134233 0.029797962 0.15400001
-0.050415657 0.029797962 0.15400001
-0.048951268 0.029797962 0.15400003
-0.046882536 0.029751472 0.15400003
-0.045046251 0.029635249 0.15400004
-0.043050919 0.029438289 0.15400003
-0.041014668 0.029327912 0.15400001
-0.038820472 0.029438285 0.15400003
-0.036910772 0.029309835 0.15400004
-0.035100628 0.029492883 0.15400003
-0.032912772 0.029565522 0.15400003
-0.031053236 0.029472547 0.15400003
-0.029100716 0.029472539 0.15400003
-0.026985498 0.029472539 0.15400003
-0.02480248 0.029296279 0.15400004
-0.022877082 0.029086104 0.15399998
-0.020965248 0.028984414 0.15399997
-0.019012736 0.028984407 0.15399997
-0.017257439 0.029024685 0.15459378
-0.064367987 0.031465732 0.15400003
-0.06300687 0.031550217 0.15400003
-0.060844563 0.031301085 0.15400003
-0.059016012 0.030960172 0.15399997
-0.057086747 0.030936923 0.15399997
-0.055134237 0.03093693 0.15399997
-0.053019006 0.031046866 0.15399997
-0.050903786 0.030936923 0.15399997
-0.048951276 0.030936923 0.15399997
-0.046998758 0.030936927 0.15399997
-0.045046244 0.030936927 0.15399997
-0.043093733 0.03093693 0.15399997
-0.040978506 0.030936932 0.15399994
-0.038863286 0.030936923 0.15399997
-0.036905441 0.030981204 0.15410806
-0.034941506 0.030971292 0.15416665
-0.032986883 0.030971289 0.15416667
-0.031032251 0.030971283 0.15416664
-0.029082965 0.030919576 0.15402855
-0.026985498 0.030936934 0.15399994
-0.024870275 0.030936927 0.15399997
-0.022917761 0.03093693 0.15399997
-0.020968884 0.030942645 0.15402775
-0.01906362 0.031022009 0.15441665
-0.017330898 0.031131295 0.15496668
-0.064407296 0.033170905 0.1547
-0.062934957 0.032913003 0.15417139
-0.060979947 0.032872453 0.15402853
-0.059039254 0.032889441 0.15399997
-0.057065785 0.032917339 0.154027
-0.055088077 0.033041574 0.1544634
-0.052928712 0.032951605 0.15447505
-0.050929163 0.033035908 0.15465719
-0.048946444 0.032997806 0.15450001
-0.046987586 0.032997813 0.15449996
-0.045028735 0.032997806 0.15450008
-0.043054525 0.033001974 0.15454055
-0.041077875 0.033019084 0.15476315
-0.039087374 0.033079866 0.15488894
-0.03698669 0.033103008 0.15500008
-0.034857731 0.033103008 0.15500005
-0.032892544 0.033103004 0.15500005
-0.03092734 0.033103008 0.15500005
-0.028980307 0.033120457 0.15497148
-0.026994789 0.033041473 0.15481079
-0.025004856 0.033068296 0.15483335
-0.02304576 0.033074073 0.15486112
-0.021101385 0.033103008 0.15500005
-0.019136198 0.033103008 0.15500005
-0.017357353 0.033074781 0.15500002
-0.064294666 0.034863491 0.15499999
-0.063025475 0.035068192 0.15500005
-0.061049391 0.035062063 0.15497227
-0.059095092 0.035068206 0.15500005
-0.057129912 0.035068192 0.15500005
-0.055000942 0.035068199 0.15500008
-0.052871991 0.035068203 0.15500005
-0.050906792 0.035068203 0.15500005
-0.048941609 0.035068192 0.15500005
-0.046976414 0.035068199 0.15500005
-0.045011226 0.035068192 0.15500005
-0.043046031 0.035068203 0.15500005
-0.04108084 0.035068199 0.15500005
-0.039115656 0.035068195 0.15500005
-0.037010651 0.035048231 0.15500006
-0.034927912 0.03467048 0.15499999
-0.03289254 0.0345769 0.15499999
-0.030927347 0.034576897 0.15499999
-0.028962156 0.034576897 0.15499999
-0.026996961 0.034413133 0.15499999
-0.025031772 0.034413133 0.15499999
-0.023066578 0.034413133 0.15499999
-0.020964917 0.034440428 0.15499999
-0.019199181 0.034450926 0.155
-0.017826065 0.034249369 0.155
-0.064171843 0.036378328 0.155
-0.062997244 0.036847051 0.15500002
-0.061169472 0.036733158 0.15499999
-0.059095103 0.036542103 0.15499999
-0.057064395 0.036607604 0.15499999
-0.05500095 0.03670587 0.15500002
-0.052871983 0.036542099 0.15499999
-0.051168829 0.036411081 0.15499999
-0.048941609 0.03621456 0.155
-0.04763148 0.03621456 0.155
-0.044192392 0.03621456 0.155
-0.043120474 0.036363438 0.15499999
-0.04108084 0.03621456 0.155
-0.039934475 0.03621456 0.155
-0.062871821 0.017356558 0.15625001
-0.060784422 0.017446838 0.15664288
-0.058957126 0.017402139 0.15666667
-0.0567206 0.017313043 0.15671432
-0.054893866 0.017741496 0.15625003
-0.050236627 0.017771628 0.15700001
-0.048784986 0.017858211 0.1566
-0.046942145 0.017933968 0.15625
-0.045341715 0.017915929 0.15633336
-0.038127456 0.017771628 0.15700001
-0.036794148 0.01777021 0.15657145
-0.035359889 0.017879855 0.15650001
-0.032578882 0.017814919 0.15680002
-0.031060763 0.017879855 0.15650004
-0.029808298 0.017988078 0.156
-0.026184157 0.017771628 0.15700001
-0.024882503 0.01780255 0.15685716
-0.023077136 0.017901501 0.15640001
-0.02140235 0.017988078 0.156
-0.05405185 0.018103387 0.15700001
-0.052744884 0.018329235 0.1566667
-0.050930321 0.018247813 0.15658334
-0.049353685 0.018274857 0.15620001
-0.04487681 0.0182203 0.15645456
-0.042956669 0.018376989 0.15666668
-0.041023549 0.018355042 0.15650003
-0.039086223 0.018134009 0.15685716
-0.034635179 0.018225867 0.15642858
-0.033157803 0.018387759 0.15625
-0.031555418 0.018383652 0.156
-0.028829839 0.018235512 0.15655558
-0.026927521 0.018210558 0.15650001
-0.025011467 0.0182203 0.15645456
-0.023215396 0.018317724 0.156
-0.020544266 0.018103387 0.15700001
-0.018991208 0.018210558 0.15650001
-0.0174693 0.018809346 0.15680002
-0.016787315 0.023097578 0.156
-0.034917798 0.035679035 0.156
-0.033104751 0.035624094 0.15600002
-0.031126877 0.035624094 0.15600002
-0.029149011 0.035624102 0.15600002
-0.027006315 0.035459265 0.15599997
-0.024863619 0.035459276 0.15599997
-0.022842379 0.035424568 0.15599997
-0.020990292 0.035500482 0.15599999
-0.018886633 0.035424568 0.15599997
-0.01723841 0.035077583 0.15599997
-0.064256214 0.037766784 0.156
-0.060836144 0.037643168 0.156
-0.059146713 0.037601963 0.15600002
-0.05720181 0.037667893 0.156
-0.054743595 0.037719693 0.156
-0.052883457 0.037601963 0.15600002
-0.050830662 0.037302285 0.15599997
-0.048927721 0.037272315 0.15599996
-0.046921425 0.037130233 0.15599997
-0.045051333 0.03716854 0.15599996
-0.042928178 0.037371214 0.15599997
-0.041016232 0.037272323 0.15599996
-0.039038364 0.037107497 0.15599999
-0.037033912 0.03707559 0.15599997
-0.03508262 0.036942676 0.156
-0.033104755 0.036942668 0.156
-0.031126877 0.036942665 0.156
-0.029149009 0.036942665 0.156
-0.027006317 0.036942676 0.15600003
-0.024863625 0.036942676 0.156
-0.022885751 0.036942676 0.156
-0.020907881 0.036942679 0.156
-0.018974841 0.036847156 0.15603125
-0.017468942 0.03680693 0.15640002
-0.064296283 0.03904793 0.15650001
-0.06299945 0.038879335 0.15599999
-0.061124582 0.038920548 0.156
-0.05914671 0.03892054 0.156
-0.05700402 0.038920555 0.15600003
-0.054861326 0.038920555 0.156
-0.05288345 0.038920555 0.156
-0.050905585 0.03892054 0.156
-0.048927721 0.038920537 0.156
-0.046949841 0.03892054 0.156
-0.044971969 0.038920544 0.156
-0.042970177 0.038949698 0.15602703
-0.041004758 0.038963009 0.1561667
-0.039057594 0.038940623 0.15617144
-0.037060991 0.038977239 0.15613517
-0.03506406 0.039009381 0.15629731
-0.03307296 0.038964529 0.1562286
-0.031104842 0.038963012 0.15616667
-0.029119147 0.039009381 0.1562973
-0.027060105 0.039038558 0.15660004
-0.024982892 0.039108813 0.15675004
-0.022999788 0.03911566 0.15677781
-0.021026785 0.039142914 0.15688893
-0.019018183 0.039053936 0.15700005
-0.017737081 0.038927592 0.15700004
-0.06417048 0.040331189 0.15700001
-0.062814012 0.041101888 0.15657692
-0.061058734 0.040883925 0.15615152
-0.059051007 0.041028533 0.15629269
-0.056956716 0.041009255 0.15657502
-0.054890171 0.041091476 0.1567838
-0.052903626 0.041123375 0.15680005
-0.050888177 0.041070465 0.15670273
-0.048912622 0.041117769 0.15683338
-0.046901628 0.041096501 0.15683787
-0.044928495 0.041160591 0.15700005
-0.042937938 0.041160583 0.15700005
-0.040947389 0.041160583 0.15700005
-0.038956836 0.041160583 0.15700005
-0.036966302 0.041160572 0.15700005
-0.034975752 0.041160576 0.15700005
-0.032985199 0.041160587 0.15700005
-0.030994648 0.041160583 0.15700005
-0.029004101 0.041160598 0.15700005
-0.027013544 0.041160569 0.15700005
-0.025022997 0.041160583 0.15700005
-0.023032445 0.041160583 0.15700005
-0.021041909 0.041160602 0.15700005
-0.01914232 0.041048218 0.15700005
-0.0178902 0.040662944 0.15700001
-0.062677585 0.043151125 0.15700005
-0.060852911 0.043151118 0.15700005
-0.058862355 0.043151118 0.15700005
-0.056871805 0.043151118 0.15700005
-0.054881264 0.043151118 0.15700005
-0.052890711 0.043151118 0.15700005
-0.050955448 0.042996306 0.15700005
-0.048909601 0.042819377 0.15700005
-0.046863753 0.042911526 0.15700005
-0.044928499 0.042985246 0.15700005
-0.042937946 0.042985246 0.15700005
-0.041033648 0.04286582 0.15700004
-0.039020654 0.042525899 0.15700004
-0.036966302 0.042487618 0.15700004
-0.034975752 0.042321738 0.15700001
-0.032985203 0.042321738 0.15700001
-0.030895127 0.042587146 0.15700004
-0.029098887 0.042558711 0.15700004
-0.027146256 0.042454444 0.15700002
-0.025023002 0.042321738 0.15700001
-0.023198331 0.042321738 0.15700001
-0.062830687 0.04492477 0.15700005
-0.060985602 0.044743579 0.15700005
-0.058937736 0.044463094 0.15700002
-0.056705918 0.044395231 0.15700001
-0.054881245 0.044478174 0.15700004
-0.053056572 0.04442288 0.15700002
-0.064212881 0.017141407 0.15833335
-0.062940933 0.017103575 0.15850002
-0.061143823 0.017024396 0.15842859
-0.058783717 0.016791558 0.15840001
-0.057029296 0.016977003 0.15842859
-0.054735295 0.017498519 0.15846156
-0.052926816 0.017527552 0.1584
-0.050907608 0.017473727 0.15824999
-0.049177103 0.017595384 0.15840001
-0.046742909 0.017801275 0.15837501
-0.044796534 0.017644553 0.15838462
-0.043058481 0.017624304 0.15866666
-0.041078251 0.017739015 0.15853848
-0.039051756 0.017594639 0.15860002
-0.036923002 0.017356221 0.15866667
-0.03495289 0.017393341 0.15854998
-0.033000387 0.017538071 0.15822223
-0.030884132 0.017472837 0.15846156
-0.028978832 0.017457446 0.15847826
-0.026998937 0.017550079 0.15837501
-0.024927147 0.017438505 0.15850002
-0.022786532 0.017633734 0.15875003
-0.020929998 0.017624306 0.15866666
-0.019101921 0.017763302 0.15854548
-0.028354162 0.018218694 0.15800001
-0.018171087 0.018218694 0.15800001
-0.017596267 0.018591002 0.15833335
-0.017149698 0.037662521 0.15833335
-0.017402241 0.039067779 0.15860002
-0.018254554 0.041840095 0.15800001
-0.017524263 0.041077711 0.1583077
-0.050222732 0.04392679 0.15800001
-0.048887249 0.04392679 0.15800001
-0.047551766 0.04392679 0.15800001
-0.040564317 0.043831401 0.15800002
-0.038871106 0.043592919 0.15800001
-0.036823951 0.043557774 0.15800001
-0.034864653 0.043425985 0.15800001
-0.032897718 0.043447755 0.15800001
-0.030953595 0.043688312 0.15800002
-0.028805871 0.043612555 0.15800001
-0.026780197 0.043497529 0.15800001
-0.024848513 0.043425985 0.15800001
-0.022793917 0.043361776 0.15800002
-0.020842059 0.043259051 0.15800002
-0.018799553 0.043141209 0.15800001
-0.017503344 0.043092113 0.15800001
-0.06240904 0.045930021 0.15800002
-0.060656216 0.045679621 0.15800001
-0.058836609 0.045529373 0.15800001
-0.056971703 0.045500763 0.15800001
-0.054896936 0.045596149 0.15800001
-0.05279934 0.045436472 0.15800001
-0.050890472 0.045095332 0.15800001
-0.048887249 0.045095339 0.15800001
-0.046884023 0.045095332 0.15800001
-0.044880789 0.045095339 0.15800001
-0.042877562 0.045095336 0.15800001
-0.040874336 0.045095336 0.15800001
-0.038871109 0.045095336 0.15800001
-0.036867879 0.045095343 0.15800001
-0.034864653 0.045095332 0.15800001
-0.03286143 0.045095332 0.15800001
-0.0308582 0.044928409 0.15800002
-0.02885497 0.044928405 0.15800002
-0.026874123 0.044966884 0.15813334
-0.024874829 0.044976506 0.15816669
-0.022850214 0.04493802 0.15803334
-0.020842059 0.044928409 0.15800002
-0.018878082 0.045024253 0.15833335
-0.017303543 0.045190707 0.15872224
-0.062833965 0.047053032 0.15800001
-0.060906623 0.047098573 0.15800001
-0.058903389 0.047098566 0.15800001
-0.056900159 0.047098566 0.15800001
-0.054938674 0.046994232 0.15800001
-0.052893706 0.046931647 0.15800002
-0.050866626 0.047074705 0.15800001
-0.048887257 0.046931643 0.15800002
-0.046902724 0.047056757 0.15831248
-0.044952344 0.047034912 0.15846428
-0.043040395 0.047111128 0.1586
-0.041004006 0.047081411 0.1585
-0.03896952 0.047051705 0.1584
-0.037007891 0.047111116 0.15859999
-0.035026189 0.047150437 0.15873332
-0.033069409 0.047228664 0.15899998
-0.031053508 0.047060687 0.15899996
-0.029037595 0.047060687 0.15899996
-0.027021686 0.04706068 0.15899996
-0.025005782 0.047060676 0.15899996
-0.02298988 0.047060668 0.15899996
-0.020973966 0.047060672 0.15899996
-0.018958062 0.047060672 0.15899996
-0.017152146 0.046598703 0.15900001
-0.062861614 0.049148973 0.15857142
-0.060934458 0.049134918 0.15867738
-0.058870886 0.049132209 0.15863332
-0.056892537 0.04916377 0.15880641
-0.0548844 0.049100567 0.15899996
-0.052892487 0.049076576 0.15899996
-0.050849486 0.049212057 0.15899996
-0.048860677 0.049076572 0.15899996
-0.046844773 0.049076568 0.15899996
-0.044996861 0.04907658 0.15899998
-0.043148935 0.049076576 0.15899996
-0.041133039 0.049076572 0.15899996
-0.039117124 0.049076568 0.15899996
-0.037101228 0.049076576 0.15899996
-0.035085317 0.049076572 0.15899996
-0.033069409 0.049076583 0.15899996
-0.0310535 0.049076576 0.15899996
-0.029083412 0.049000207 0.15899996
-0.027069688 0.048860587 0.15899998
-0.025072977 0.0486398 0.15899999
-0.022989878 0.0485726 0.15899999
-0.021069964 0.048476603 0.15900002
-0.019394843 0.048303813 0.15900002
-0.062696524 0.050978243 0.15899998
-0.06095612 0.051092487 0.15899996
-0.0590242 0.051008485 0.15899996
-0.05692431 0.050756495 0.15899998
-0.054860402 0.050876487 0.15899998
-0.052944187 0.050821122 0.15899998
-0.050943781 0.050655693 0.15899999
-0.048860677 0.050588503 0.15899999
-0.046748772 0.050492506 0.15900002
-0.044996861 0.050588503 0.15900002
-0.043148942 0.050588496 0.15899999
-0.041352723 0.050510973 0.15900004
-0.039621107 0.050252523 0.15900001
-0.03263263 0.05031972 0.15900002
-0.031389486 0.050252523 0.15900001
-0.060956117 0.052352428 0.15900002
-0.059612181 0.052268431 0.15900001
-0.0645025 0.015941337 0.162
-0.06313321 0.015941337 0.162
-0.061100461 0.015901973 0.16160001
-0.059851706 0.015842933 0.16100001
-0.064428404 0.016643686 0.16020001
-0.063046359 0.016469475 0.16065
-0.061022781 0.016518224 0.16076472
-0.058878832 0.016440466 0.16075002
-0.057003692 0.016713474 0.16128573
-0.054917242 0.016862161 0.16099998
-0.052912969 0.016872354 0.16149998
-0.050918654 0.016911319 0.16106251
-0.049018521 0.017136376 0.16117859
-0.047083322 0.017165149 0.16134782
-0.045098182 0.0169362 0.16116665
-0.042978965 0.016813692 0.16105264
-0.041122388 0.016985133 0.16088001
-0.038941346 0.016795045 0.16035296
-0.037046358 0.01670621 0.16042858
-0.034864049 0.016765017 0.16093335
-0.033103384 0.01704671 0.1613
-0.031054687 0.01669988 0.16122729
-0.028859917 0.016596524 0.16109523
-0.0270046 0.016763216 0.16114286
-0.025114654 0.016916769 0.16076925
-0.023067674 0.016983798 0.16072223
-0.021038806 0.016840182 0.16078949
-0.018899836 0.017175712 0.16122225
-0.017628595 0.017555151 0.16200002
-0.018005792 0.018224407 0.16100001
-0.017436797 0.018720496 0.16125001
-0.017052524 0.039026033 0.16018182
-0.017085705 0.040978607 0.16146155
-0.017266693 0.042785123 0.16125001
-0.017724905 0.04769475 0.16000001
-0.026346393 0.049892388 0.16000001
-0.024918869 0.049742121 0.16000001
-0.023134468 0.049723338 0.16
-0.021021355 0.049596556 0.16000001
-0.018916531 0.049364276 0.1600741
-0.017663429 0.048862688 0.16125
-0.05846566 0.051920973 0.16000001
-0.056944221 0.051920973 0.16000003
-0.055760879 0.051920969 0.16000001
-0.052718002 0.051920969 0.16000001
-0.05078163 0.05176729 0.16000001
-0.04899893 0.051751919 0.16000001
-0.047223918 0.051625129 0.16000001
-0.045110814 0.051751919 0.16
-0.043082222 0.051751919 0.16
-0.040902387 0.05151169 0.16000003
-0.038976755 0.051293086 0.16000003
-0.036996473 0.051244762 0.16000001
-0.034967881 0.051244769 0.16000001
-0.032995645 0.051399745 0.16000004
-0.030854363 0.051319897 0.16000003
-0.028842345 0.051125441 0.15999998
-0.026853537 0.051075716 0.15999998
-0.024994001 0.051075723 0.16000001
-0.023134464 0.051075719 0.15999998
-0.02110588 0.051075727 0.15999998
-0.018948231 0.051018741 0.16035137
-0.017462879 0.051144045 0.16168748
-0.06259045 0.053273357 0.16000001
-0.060970657 0.053488515 0.16000004
-0.058898844 0.053199407 0.16
-0.056944225 0.053104319 0.15999998
-0.054915641 0.053104319 0.15999998
-0.052887052 0.053104311 0.15999998
-0.05085846 0.053104326 0.15999998
-0.048998933 0.053104308 0.16000001
-0.047139391 0.053104308 0.15999998
-0.045110811 0.053104311 0.15999998
-0.043082226 0.053104322 0.15999998
-0.041069005 0.053027473 0.16
-0.039025057 0.053104319 0.15999998
-0.036996469 0.053104319 0.15999998
-0.034992028 0.05308016 0.15999998
-0.032973435 0.052991111 0.16016667
-0.030968349 0.053035572 0.1603
-0.028966082 0.053090926 0.16046672
-0.026954243 0.053135034 0.16060007
-0.024979416 0.053173725 0.16060716
-0.022987133 0.05312828 0.1606129
-0.020914549 0.053191479 0.16083871
-0.018880617 0.053071711 0.16100009
-0.017229952 0.053092357 0.16191301
-0.062502943 0.055083182 0.16000001
-0.061012823 0.055142809 0.16005556
-0.058987141 0.055086657 0.16032259
-0.05691833 0.055024132 0.16020693
-0.054916233 0.055033393 0.1602
-0.05288269 0.055115089 0.16040625
-0.050975751 0.055156246 0.16066667
-0.049064502 0.055197734 0.16057144
-0.047112036 0.05517124 0.16060001
-0.045109004 0.055254202 0.16093758
-0.043011285 0.055307385 0.16100007
-0.040985476 0.055214595 0.16100009
-0.038924728 0.055284049 0.16086207
-0.036888432 0.055230707 0.16083877
-0.034990158 0.055268124 0.16100004
-0.033145174 0.055137277 0.16100009
-0.0311039 0.055137269 0.16100009
-0.029062638 0.055137269 0.16100009
-0.027021376 0.055137269 0.16100009
-0.025020134 0.055087239 0.16100009
-0.022943418 0.054978684 0.16103338
-0.020931913 0.055059195 0.16126671
-0.018903626 0.055155259 0.16164516
-0.017308498 0.05507518 0.16199997
-0.062524587 0.057194818 0.16077778
-0.061010167 0.057030469 0.16082148
-0.059001189 0.057008412 0.16100007
-0.056959916 0.057008427 0.16100007
-0.054918654 0.057008442 0.16100007
-0.052877396 0.057008423 0.16100007
-0.05100622 0.057008412 0.16100001
-0.049135078 0.057008419 0.16100007
-0.047093797 0.057008438 0.16100007
-0.045052543 0.057008412 0.16100007
-0.043011278 0.057008427 0.16100007
-0.040970013 0.057008427 0.16100007
-0.038958076 0.056984954 0.16100006
-0.036944326 0.056927301 0.16125
-0.035041597 0.057062957 0.16154546
-0.033099581 0.056970041 0.1613913
-0.031075461 0.056831613 0.16104349
-0.029057821 0.056944225 0.16124
-0.027042128 0.056939758 0.16134782
-0.025052072 0.057058081 0.16180769
-0.023081319 0.057020195 0.16200002
-0.021027382 0.057020202 0.16200002
-0.018973438 0.057020202 0.16200002
-0.017569913 0.056883264 0.16199999
-0.062609211 0.058924351 0.16100001
-0.061042435 0.058879588 0.16100009
-0.059074264 0.058783188 0.16120006
-0.056978058 0.058790937 0.16116135
-0.054971125 0.058926418 0.16156253
-0.052910049 0.058937058 0.16162072
-0.050990954 0.058914062 0.16159259
-0.04915588 0.059036229 0.16186208
-0.047082674 0.058981627 0.1617742
-0.045010369 0.059028782 0.16193549
-0.042929057 0.059048027 0.16186208
-0.040904116 0.059028786 0.16193549
-0.038973048 0.059034631 0.16199999
-0.037116606 0.058902971 0.16200003
-0.035062656 0.058902968 0.16200003
-0.03300871 0.058902971 0.16200003
-0.030954761 0.05890296 0.16200003
-0.028900828 0.058902968 0.16200003
-0.027018046 0.058902971 0.16200002
-0.025135269 0.058731813 0.16200002
-0.023059921 0.058795992 0.16200002
-0.021027382 0.058731813 0.16200002
-0.019093249 0.058475066 0.16199997
-0.017775305 0.058047161 0.162
-0.059074216 0.060736846 0.162
-0.056971382 0.060614593 0.16199997
-0.054831862 0.060749084 0.162
-0.052863497 0.060956914 0.16200003
-0.051004317 0.060927402 0.162
-0.049097925 0.060785759 0.16200002
-0.047043994 0.060785756 0.16200002
-0.044965599 0.060932454 0.16200003
-0.042936102 0.060956921 0.16200003
-0.040967744 0.060871325 0.16200002
-0.038999382 0.060614586 0.16199997
-0.037116606 0.06044342 0.16199997
-0.035062656 0.060614578 0.16199997
-0.033008713 0.060443427 0.16199997
-0.030954769 0.060443435 0.16199997
-0.028900828 0.060101103 0.162
-0.027702693 0.060101103 0.162
-0.044476561 0.062155049 0.162
-0.042936102 0.062155049 0.162
-0.064556226 0.015695304 0.163
-0.06300626 0.015695304 0.163
-0.061628513 0.015695304 0.16300002
-0.059079677 0.016246403 0.163
-0.05738046 0.016154554 0.16300002
-0.054567557 0.016384177 0.163
-0.053017586 0.016384177 0.163
-0.051123187 0.016384177 0.163
-0.049056571 0.016441584 0.163
-0.046989944 0.016441584 0.163
-0.04492332 0.016384177 0.163
-0.043078128 0.016187359 0.16300002
-0.041208323 0.016285768 0.16300002
-0.039067898 0.016384177 0.163
-0.037001275 0.016384177 0.163
-0.034819841 0.016441584 0.163
-0.033040252 0.016384177 0.163
-0.031145848 0.01603974 0.163
-0.02873479 0.01603974 0.163
-0.026323732 0.016384177 0.163
-0.024773767 0.016728614 0.163
-0.022776034 0.016453063 0.163
-0.020984961 0.016384177 0.163
-0.018952781 0.016315291 0.163
-0.017712811 0.016728614 0.163
-0.016851718 0.041700289 0.163
-0.017023936 0.043594688 0.163
-0.017196154 0.044283565 0.163
-0.01716171 0.049243458 0.163
-0.01700828 0.050921809 0.163
-0.017196154 0.057372168 0.16300002
-0.018849453 0.059611011 0.163
-0.017497536 0.059008241 0.16300002
-0.040445641 0.061849847 0.163
-0.038944885 0.061800644 0.16300002
-0.037079554 0.061693281 0.163
-0.034811642 0.061800644 0.16300002
-0.032868035 0.061677631 0.163
-0.030973632 0.061677624 0.163
-0.029079229 0.061333187 0.16300005
-0.0269552 0.061149497 0.16300006
-0.024945984 0.060988765 0.16300006
-0.022879364 0.061039407 0.16300006
-0.020984963 0.060988754 0.16300006
-0.019090557 0.06098875 0.16300006
-0.017540591 0.060988758 0.16300003
-0.040885758 0.062500454 0.163
-0.039190911 0.062243491 0.16300002
-0.036829058 0.06228039 0.163
-0.034934655 0.062194284 0.163
-0.032695819 0.062309094 0.163
-0.030973632 0.062538728 0.16300002
-0.029148115 0.062607601 0.16300003
-0.027012605 0.062607609 0.16300003
-0.024945986 0.062538721 0.16300003
-0.022879366 0.062538721 0.16300003
-0.021047587 0.062413473 0.163
-0.019090557 0.062194284 0.163
-0.017712811 0.062194284 0.163
-0.064729497 0.01534603 0.16400002
-0.063202761 0.015352878 0.16450001
-0.060467042 0.015887883 0.16500001
-0.05907239 0.015887884 0.16500002
-0.057852071 0.015887883 0.16500001
-0.050704475 0.015771663 0.16500002
-0.049832821 0.015887883 0.16500001
-0.046869185 0.015887883 0.16500001
-0.045051161 0.015738457 0.16500002
-0.043196838 0.015735745 0.16422224
-0.040070251 0.015887883 0.16500001
-0.03902426 0.015887884 0.16500001
-0.036883254 0.015750267 0.1647778
-0.034996942 0.015653936 0.16454548
-0.03314494 0.015778305 0.16466667
-0.03100501 0.015887884 0.16500001
-0.029052107 0.015729161 0.1648
-0.027518382 0.015887883 0.16500001
-0.024729077 0.015887884 0.16500001
-0.022985762 0.01571355 0.16500001
-0.021047538 0.015697505 0.16483334
-0.018961947 0.015665406 0.16450001
-0.017544642 0.015493779 0.16411112
-0.066917315 0.017282536 0.16500001
-0.060641378 0.016236547 0.16500001
-0.059407476 0.016138144 0.164
-0.056749836 0.016344219 0.16433334
-0.055014621 0.016228702 0.16433334
-0.052982487 0.016187344 0.16450001
-0.051053144 0.016236546 0.16500002
-0.04876259 0.016286282 0.16462502
-0.046758402 0.016138144 0.16400002
-0.045081407 0.016157825 0.16419999
-0.043986 0.016138144 0.164
-0.040867053 0.016138144 0.16400002
-0.038961027 0.016138144 0.16400002
-0.03688173 0.016138144 0.16400002
-0.0349757 0.016195903 0.16400002
-0.033069678 0.016138144 0.16400002
-0.030297276 0.016138144 0.164
-0.028911076 0.016138144 0.164
-0.026884906 0.016170945 0.16433334
-0.025026722 0.016377371 0.16466668
-0.023093989 0.016237158 0.16400002
-0.020940427 0.016138144 0.16400002
-0.019034401 0.016138144 0.164
-0.017763719 0.016253661 0.164
-0.016955102 0.048887119 0.164
-0.064742707 0.01482667 0.1664
-0.062740609 0.015461157 0.16666669
-0.061041962 0.015568721 0.16625002
-0.058993295 0.015383482 0.16662504
-0.056990523 0.015688926 0.16638891
-0.055190865 0.015910862 0.16628572
-0.052979335 0.015741749 0.16635716
-0.051038988 0.015515802 0.16645455
-0.049040057 0.015734525 0.16633335
-0.046830472 0.015478171 0.16660002
-0.04525888 0.015283444 0.16636364
-0.042928163 0.015723869 0.1664286
-0.04112719 0.015830217 0.16660003
-0.038763061 0.015548152 0.16650002
-0.037147995 0.01547817 0.16660002
-0.03522123 0.015356272 0.16680001
-0.033139441 0.015510831 0.1667778
-0.030948794 0.015466965 0.16641667
-0.028911579 0.015234105 0.16657145
-0.026922652 0.015424922 0.16660003
-0.025164312 0.015513831 0.16646157
-0.022932321 0.015164065 0.16645458
-0.02099324 0.015140354 0.16654548
-0.019202227 0.015284499 0.16661541
-0.066621318 0.016685726 0.16600001
-0.057150364 0.016334951 0.16600001
-0.053857505 0.013854735 0.17
-0.03823106 0.013854735 0.17
-0.037692215 0.013854735 0.17
-0.034459159 0.013854735 0.17
-0.033381473 0.013854735 0.17
-0.030148413 0.013854735 0.17
-0.029789185 0.013854735 0.17
-0.027094971 0.013854735 0.17
-0.066932529 0.015201698 0.16900001
-0.06483563 0.014735604 0.16939999
-0.06325911 0.014974386 0.16940002
-0.061077017 0.015022521 0.16877778
-0.058893491 0.014753671 0.16923076
-0.05684917 0.014764003 0.16903846
-0.055018209 0.014960924 0.16903575
-0.05331013 0.014890307 0.16910525
-0.050831705 0.015013511 0.16890001
-0.04901018 0.015238073 0.16908334
-0.046929419 0.014850366 0.16941667
-0.044946399 0.014631803 0.16944999
-0.043003809 0.014839491 0.16882764
-0.041008804 0.014865647 0.16881484
-0.039065454 0.014758998 0.16861902
-0.037074357 0.014696727 0.16857693
-0.034954637 0.014650001 0.16845453
-0.033010252 0.014700528 0.16884001
-0.031126076 0.014622627 0.16884208
-0.028983166 0.014439134 0.16844445
-0.026902918 0.014420455 0.16847056
-0.024950635 0.014636182 0.16886364
-0.023006657 0.014486143 0.16899998
-0.02118375 0.01467475 0.16869999
-0.019242831 0.014698892 0.16887499
-0.058149073 0.013936232 0.171
-0.057065047 0.013936232 0.171
-0.055258345 0.013936232 0.171
-0.053632304 0.013936232 0.171
-0.046405464 0.013936232 0.171
-0.044960104 0.013936232 0.171
-0.042972725 0.013936232 0.171
-0.041346684 0.013936232 0.171
-0.038997959 0.013936232 0.171
-0.036829911 0.013936232 0.171
-0.035565212 0.013936232 0.171
-0.032975599 0.013815786 0.171
-0.03086777 0.013936232 0.171
-0.028880391 0.013936232 0.171
-0.026350999 0.013936232 0.171
-0.025266973 0.013936232 0.171
-0.022556908 0.013936232 0.171
-0.021472884 0.013936232 0.171
-0.064833894 0.014297574 0.171
-0.063087411 0.014498319 0.171
-0.061160259 0.014598692 0.171
-0.059413768 0.014478245 0.171
-0.05290962 0.014749251 0.171
-0.050922241 0.014658916 0.171
-0.049476877 0.014839587 0.171
-0.047308821 0.014478245 0.171
-0.040081985 0.014297574 0.171
-0.039720643 0.014297574 0.171
-0.022014897 0.014297574 0.171
-0.020776013 0.014400815 0.17100002
-0.019124163 0.01444211 0.171
-0.062393468 0.01364227 0.17300001
-0.061022587 0.013550878 0.17299999
-0.059011966 0.013550879 0.17300001
-0.056968391 0.01354294 0.17290001
-0.05499072 0.013733662 0.17300001
-0.053041022 0.013672735 0.17300001
-0.050908543 0.013571187 0.17299999
-0.049617648 0.013622424 0.17275
-0.046423946 0.013393944 0.17275
-0.04497217 0.013341634 0.1726667
-0.042965412 0.013341635 0.17266668
-0.041230969 0.013595191 0.17257144
-0.038929701 0.013659503 0.17283335
-0.03736423 0.013422409 0.17291668
-0.03498745 0.013701907 0.17260002
-0.033381488 0.01355568 0.1726
-0.030775085 0.013693969 0.1725
-0.029072605 0.01351261 0.17272729
-0.026952181 0.013443937 0.17253847
-0.02512938 0.013415979 0.17253847
-0.022901075 0.013420162 0.1722308
-0.021030633 0.013319139 0.17237504
-0.019351792 0.013633042 0.1725
-0.064308554 0.01405848 0.17250001
-0.062956177 0.014156504 0.17242859
-0.061029814 0.014205165 0.17227274
-0.059434112 0.014163113 0.17200001
-0.052912898 0.014368502 0.17258334
-0.051090095 0.014253023 0.17245458
-0.049117148 0.014527244 0.17207694
-0.04754103 0.014240207 0.17250001
-0.040615313 0.01405848 0.17250001
-0.039771203 0.01401773 0.17200001
-0.032320376 0.01401773 0.17200001
-0.031775195 0.01401773 0.17200001
-0.024324371 0.01401773 0.17200001
-0.023779187 0.01401773 0.17200001
-0.020689821 0.01401773 0.17200002
-0.018810404 0.014207608 0.17210002
-0.017717164 0.01440156 0.17225
-0.064888112 0.013623491 0.175
-0.063395701 0.0134356 0.17466669
-0.061007638 0.013077686 0.17400001
-0.058985393 0.013077686 0.17400001
-0.056894448 0.013151491 0.17416668
-0.054853939 0.013403577 0.17414288
-0.053131294 0.013361089 0.17450002
-0.050977979 0.012943568 0.17445457
-0.049194038 0.0134157 0.17481248
-0.046991546 0.012946501 0.17444447
-0.045170631 0.012635817 0.17425002
-0.042970814 0.012660546 0.17416668
-0.041119359 0.013188396 0.17425001
-0.038957894 0.013151383 0.17428574
-0.037260398 0.013131069 0.1747143
-0.034802023 0.013344233 0.17460002
-0.03297988 0.013229789 0.17458823
-0.03094616 0.013140772 0.17450003
-0.029072139 0.012768039 0.17446667
-0.027185371 0.012893537 0.17462501
-0.025085073 0.012979473 0.17433336
-0.023168143 0.013004025 0.17425002
-0.02088768 0.012819981 0.17466669
-0.01917935 0.013507183 0.17480002
-0.048736781 0.014316871 0.17416668
-0.017621269 0.014180727 0.17400001
-0.054323241 0.011873786 0.178
-0.053759042 0.011873786 0.178
-0.033447832 0.011873786 0.178
-0.030062629 0.011873786 0.178
-0.029686496 0.011873786 0.178
-0.025172895 0.011873787 0.17800002
-0.020965789 0.011833763 0.17739999
-0.066357717 0.013785864 0.17600001
-0.065130495 0.012801107 0.17671429
-0.063241392 0.013057226 0.17657144
-0.061066009 0.012916967 0.17683333
-0.059004147 0.012768466 0.177375
-0.056981795 0.012922981 0.17726667
-0.054930981 0.012786085 0.17733334
-0.053078074 0.012651555 0.17680004
-0.05085472 0.012300749 0.17633335
-0.04923296 0.012840255 0.17672728
-0.04717169 0.012413586 0.17728572
-0.044965357 0.01235404 0.1771111
-0.043068949 0.012343627 0.1772
-0.04107032 0.012903355 0.17708334
-0.03894512 0.012597514 0.17685716
-0.037046917 0.012943492 0.1768667
-0.035022862 0.012928537 0.177
-0.032792099 0.012437267 0.17666668
-0.031314805 0.012441858 0.177
-0.028902745 0.012345172 0.17666668
-0.026783802 0.012467922 0.17728572
-0.02490652 0.012504126 0.17700005
-0.023090115 0.012532265 0.17707144
-0.020879304 0.012388894 0.17641668
-0.01899658 0.013059035 0.17606671
-0.017823812 0.013971818 0.17600001
-0.067482792 0.014238212 0.177
-0.060869496 0.011940493 0.17900001
-0.054628424 0.011656808 0.17900001
-0.053493686 0.011940493 0.17900001
-0.051035084 0.011940493 0.17900001
-0.046496123 0.011940493 0.17900001
-0.044983141 0.011940493 0.17900001
-0.043091901 0.011798651 0.17900001
-0.041578919 0.011940493 0.17900001
-0.038174696 0.011940493 0.17900001
-0.037607327 0.011940493 0.17900001
-0.032690123 0.011940493 0.17900001
-0.030609768 0.011940493 0.17900001
-0.02909678 0.011940493 0.17900001
-0.026259931 0.011940493 0.17900001
-0.024557821 0.011940493 0.17900001
-0.022288341 0.011940493 0.17900001
-0.020964477 0.011562246 0.17900001
-0.066732317 0.01288611 0.17900001
-0.064841084 0.012602424 0.17900001
-0.062798552 0.012545689 0.17900001
-0.060869496 0.012507863 0.17900001
-0.058978263 0.01231874 0.17900001
-0.05708703 0.012470039 0.17900001
-0.05576317 0.012696986 0.17900001
-0.049068201 0.012545687 0.17900001
-0.040948503 0.01248685 0.17900001
-0.039309438 0.01231874 0.17900001
-0.036850832 0.012696985 0.17900001
-0.035526972 0.012696987 0.17900001
-0.028718535 0.012318741 0.17900001
-0.027583793 0.012318741 0.17900001
-0.066139281 0.011691434 0.18100001
-0.062505789 0.011500197 0.18100001
-0.061051767 0.01151712 0.18045458
-0.056577459 0.011691434 0.18100002
-0.054996923 0.011195963 0.18055558
-0.053792536 0.011626841 0.18000001
-0.050509214 0.011563519 0.18050002
-0.049409844 0.011542412 0.18066667
-0.046843171 0.011648372 0.18033335
-0.045014914 0.011599885 0.18042858
-0.042748779 0.011204956 0.18045458
-0.041320421 0.011443533 0.18044445
-0.037262578 0.011691434 0.18100001
-0.032481667 0.011691434 0.18100002
-0.030294675 0.011659138 0.1805
-0.028887384 0.011401641 0.18027276
-0.02705211 0.0114679 0.18050002
-0.025120288 0.011512607 0.18060003
-0.022919845 0.011691435 0.18100001
-0.021359881 0.011484049 0.18075001
-0.066154227 0.0120072 0.18000001
-0.065170988 0.012243608 0.18028574
-0.063181899 0.012096613 0.18020001
-0.060068473 0.0120072 0.18000001
-0.059004888 0.012099655 0.18057145
-0.056934342 0.01220833 0.18057145
-0.055884514 0.01219738 0.18000001
-0.052651457 0.0120072 0.18000001
-0.050369296 0.0120072 0.18000001
-0.049080465 0.012179355 0.18030003
-0.047516599 0.0120072 0.18000001
-0.04048625 0.012096613 0.18020001
-0.039448138 0.012135644 0.1805
-0.036656741 0.012270204 0.18037501
-0.035082545 0.01235278 0.1806
-0.031541489 0.012007201 0.18000001
-0.028308433 0.0120072 0.18000001
-0.027357532 0.012007201 0.18000001
-0.024314655 0.0120072 0.18000001
-0.023363754 0.0120072 0.18000001
-0.020242535 0.012073907 0.18100001
-0.019668825 0.012073907 0.18100001
-0.066491202 0.011412743 0.18266669
-0.06526877 0.01173464 0.18266669
-0.063280009 0.011401976 0.1825
-0.061253972 0.01116526 0.18240002
-0.058926739 0.011643576 0.18250002
-0.057066899 0.011188914 0.18245457
-0.054612368 0.010949465 0.18228573
-0.053093009 0.011809856 0.18283336
-0.050793614 0.011284195 0.18266669
-0.049468644 0.011433922 0.18300001
-0.04682786 0.011402681 0.1825
-0.044849463 0.011064583 0.1825
-0.043092676 0.010690837 0.18220003
-0.041305467 0.011131837 0.18257144
-0.038641069 0.011820621 0.18300001
-0.036854841 0.01141286 0.18266669
-0.034387376 0.011820621 0.18300001
-0.032827135 0.011363588 0.18250002
-0.031169189 0.011402047 0.18250002
-0.028716911 0.010713717 0.18260001
-0.026996082 0.010864481 0.18237501
-0.024895597 0.010900418 0.1821667
-0.023088682 0.011006272 0.18233334
-0.020939926 0.010883772 0.18217646
-0.019595964 0.011300351 0.18210003
-0.068610251 0.013174066 0.18300001
-0.067658447 0.012525199 0.18200001
-0.064966343 0.012140613 0.18200001
-0.036122397 0.012140613 0.18200001
-0.035160776 0.01220732 0.18300001
-0.060759723 0.0099951811 0.185
-0.059000563 0.0099951811 0.185
-0.057632323 0.0099951811 0.185
-0.044731788 0.0099951811 0.185
-0.042972624 0.0099951811 0.185
-0.036717825 0.0099951811 0.185
-0.028703853 0.0099951811 0.185
-0.02557645 0.0099951811 0.185
-0.066829339 0.01121299 0.18466668
-0.064972341 0.011430713 0.18420002
-0.063095868 0.010819842 0.18440001
-0.060888205 0.010843664 0.18466666
-0.059147209 0.010830618 0.18450001
-0.057281099 0.010552443 0.18450001
-0.054778647 0.010683279 0.18450001
-0.053421002 0.011203497 0.18499999
-0.050742585 0.010974091 0.18466668
-0.049065497 0.011573845 0.18455556
-0.046546381 0.010909256 0.18460001
-0.045219023 0.010572974 0.18400002
-0.043129157 0.010329966 0.18400002
-0.040992439 0.011035117 0.18453334
-0.03918111 0.011776438 0.18433335
-0.036700867 0.010856012 0.18430771
-0.035517901 0.011549655 0.18485714
-0.033059567 0.010654677 0.18458334
-0.031270385 0.010913184 0.18400002
-0.029574206 0.010478283 0.18433335
-0.027048066 0.010448221 0.18437502
-0.025243795 0.010329966 0.18400002
-0.022839973 0.010386107 0.185
-0.021217184 0.010358036 0.18450001
-0.01941161 0.010718778 0.18400002
-0.068013139 0.012274027 0.18400002
-0.036130536 0.012274027 0.18400002
-0.035741724 0.012274027 0.18400002
-0.062435187 0.0096821282 0.18650001
-0.061012059 0.0095989648 0.18616667
-0.058926445 0.0096561704 0.186
-0.057047345 0.0096977027 0.18680003
-0.054896593 0.009708086 0.18700002
-0.045095537 0.0096821282 0.18650001
-0.043161839 0.0096907802 0.1866667
-0.036588009 0.0096734762 0.18633334
-0.034546286 0.009708086 0.18700001
-0.033953559 0.009708086 0.18700001
-0.028647238 0.0095951855 0.18700002
-0.026912928 0.0094827889 0.1868889
-0.025411718 0.0095590642 0.18666667
-0.021703862 0.009708086 0.18700001
-0.066622362 0.010925545 0.18620001
-0.065105669 0.01104637 0.18625
-0.062756188 0.010307066 0.18640001
-0.056918386 0.010076223 0.18650001
-0.054996062 0.010049209 0.186
-0.053101443 0.010652978 0.18625003
-0.050924268 0.010335248 0.18644446
-0.049177419 0.010778963 0.18616669
-0.047655039 0.011060933 0.18650001
-0.045956179 0.010049209 0.186
-0.042025793 0.010049209 0.186
-0.040786851 0.010651909 0.18654546
-0.039248589 0.011367722 0.18700002
-0.036227345 0.010272743 0.18650001
-0.035217546 0.010782813 0.18671432
-0.033126939 0.010092433 0.1868
-0.031064991 0.010676194 0.18666667
-0.027090335 0.010049209 0.186
-0.024600638 0.01021723 0.18620001
-0.023065437 0.01015974 0.18683335
-0.020845613 0.010228458 0.18640001
-0.019728104 0.01049839 0.18700001
-0.061135143 0.0092928214 0.18820003
-0.058981281 0.0092316456 0.18837501
-0.057133183 0.009239953 0.18845455
-0.055201255 0.0093270261 0.18842858
-0.05379973 0.0097600007 0.18800001
-0.050882138 0.0096113412 0.18855555
-0.049467761 0.0096313981 0.18860002
-0.046374179 0.009586269 0.18850002
-0.04508213 0.0092129027 0.18855555
-0.042779833 0.0094372472 0.18816668
-0.041431591 0.0097946106 0.18866669
-0.036828026 0.0094547598 0.18871431
-0.035278488 0.0093844002 0.18844445
-0.033167675 0.0096228765 0.18877779
-0.030322921 0.0096122269 0.18900001
-0.029022761 0.0091803521 0.18833336
-0.026984368 0.0089654718 0.18800001
-0.024932172 0.0093434118 0.18862499
-0.023072921 0.00958627 0.18850002
-0.021480164 0.009586269 0.18850002
-0.065260753 0.010656439 0.18840002
-0.053078245 0.010338205 0.18840002
-0.048833922 0.010504872 0.18799999
-0.047046229 0.010355898 0.18800001
-0.040491365 0.01055453 0.18800001
-0.038408816 0.010383968 0.18850002
-0.03231981 0.010211294 0.18900001
-0.031429172 0.010546185 0.18875
-0.024600778 0.010157266 0.18800001
-0.020483304 0.01018428 0.18850002
