# .PCD v0.7 - Point Cloud Data file format
VERSION 0.7
FIELDS x y z
SIZE 4 4 4
TYPE F F F
COUNT 1 1 1
WIDTH 1327
HEIGHT 1
VIEWPOINT 0 0 0 1 0 0 0
POINTS 1327
DATA ascii
-0.051568471 0.038684227 0.15259229
-0.053113893 0.039817706 0.15316416
-0.054659314 0.040951185 0.15373605
-0.056204733 0.042084664 0.15430793
-0.057750154 0.043218143 0.15487981
-0.059295572 0.044351622 0.15545169
-0.060840994 0.045485102 0.15602358
-0.062386416 0.046618581 0.15659545
-0.063931838 0.04775206 0.15716733
-0.065477259 0.048885539 0.15773922
-0.067022681 0.050019018 0.1583111
-0.068568096 0.051152498 0.15888298
-0.028662998 0.024192594 0.14528736
-0.03020842 0.025326073 0.14585924
-0.031753842 0.026459552 0.14643112
-0.033299264 0.027593033 0.147003
-0.034844682 0.028726511 0.14757489
-0.036390103 0.029859992 0.14814676
-0.037935525 0.030993471 0.14871864
-0.039480943 0.032126948 0.14929053
-0.041026365 0.033260427 0.14986241
-0.042571787 0.034393907 0.15043429
-0.044117205 0.035527386 0.15100616
-0.045662627 0.036660869 0.15157805
-0.047208048 0.037794348 0.15214993
-0.048753466 0.038927827 0.15272181
-0.050298888 0.040061306 0.1532937
-0.051844306 0.041194785 0.15386558
-0.053389728 0.042328265 0.15443745
-0.05493515 0.043461744 0.15500933
-0.056480572 0.044595223 0.15558121
-0.058025993 0.045728702 0.1561531
-0.059571411 0.046862181 0.15672497
-0.061116833 0.04799566 0.15729685
-0.062662251 0.04912914 0.15786874
-0.064207673 0.050262619 0.15844062
-0.065753095 0.051396098 0.1590125
-0.067298517 0.052529581 0.15958437
-0.027393416 0.025569674 0.14598876
-0.028938837 0.026703153 0.14656064
-0.030484259 0.027836632 0.14713252
-0.032029677 0.028970113 0.14770441
-0.033575099 0.03010359 0.14827628
-0.035120521 0.031237071 0.14884816
-0.036665939 0.032370549 0.14942005
-0.038211361 0.033504032 0.14999193
-0.039756782 0.034637511 0.15056381
-0.0413022 0.03577099 0.15113568
-0.042847622 0.036904469 0.15170757
-0.044393044 0.038037948 0.15227945
-0.045938462 0.039171427 0.15285133
-0.047483884 0.040304907 0.15342322
-0.049029306 0.041438386 0.1539951
-0.050574724 0.042571865 0.15456697
-0.052120145 0.043705344 0.15513885
-0.053665563 0.044838823 0.15571073
-0.055210985 0.045972303 0.15628262
-0.056756407 0.047105782 0.1568545
-0.058301829 0.048239261 0.15742637
-0.059847251 0.04937274 0.15799826
-0.061392669 0.050506219 0.15857014
-0.062938094 0.051639698 0.15914202
-0.064483508 0.052773178 0.15971389
-0.06602893 0.053906657 0.16028579
-0.026123833 0.026946753 0.14669016
-0.027669255 0.028080232 0.14726204
-0.029214673 0.029213712 0.14783393
-0.030760095 0.030347193 0.14840581
-0.032305516 0.03148067 0.14897768
-0.033850934 0.032614149 0.14954957
-0.035396356 0.033747628 0.15012145
-0.036941778 0.034881108 0.15069333
-0.038487196 0.036014587 0.1512652
-0.040032618 0.037148066 0.1518371
-0.04157804 0.038281545 0.15240897
-0.043123458 0.039415024 0.15298085
-0.044668879 0.040548507 0.15355274
-0.046214301 0.041681983 0.15412462
-0.047759719 0.042815465 0.15469649
-0.049305141 0.043948945 0.15526837
-0.050850563 0.045082424 0.15584025
-0.052395981 0.046215903 0.15641214
-0.053941403 0.047349382 0.15698402
-0.055486821 0.048482861 0.15755589
-0.057032242 0.049616341 0.15812778
-0.058577664 0.05074982 0.15869966
-0.060123086 0.051883299 0.15927154
-0.061668508 0.053016778 0.15984342
-0.06321393 0.054150257 0.16041531
-0.064759344 0.05528374 0.16098718
-0.024854248 0.028323833 0.14739156
-0.02639967 0.029457312 0.14796345
-0.02794509 0.030590791 0.14853533
-0.02949051 0.03172427 0.1491072
-0.03103593 0.03285775 0.14967909
-0.032581352 0.033991229 0.15025097
-0.034126773 0.035124708 0.15082285
-0.035672192 0.036258187 0.15139472
-0.037217613 0.03739167 0.15196662
-0.038763031 0.038525146 0.15253849
-0.040308453 0.039658628 0.15311037
-0.041853875 0.040792108 0.15368226
-0.043399297 0.041925587 0.15425414
-0.044944715 0.043059066 0.15482602
-0.046490137 0.044192545 0.15539789
-0.048035558 0.045326024 0.15596977
-0.049580976 0.046459503 0.15654166
-0.051126398 0.047592983 0.15711354
-0.05267182 0.048726462 0.15768541
-0.054217238 0.049859941 0.15825731
-0.05576266 0.05099342 0.15882918
-0.057308078 0.052126899 0.15940106
-0.0588535 0.053260379 0.15997294
-0.060398921 0.054393858 0.16054483
-0.061944343 0.055527337 0.1611167
-0.063489765 0.056660816 0.16168858
-0.023584664 0.029700913 0.14809297
-0.025130086 0.030834392 0.14866485
-0.026675506 0.031967871 0.14923672
-0.028220925 0.03310135 0.14980862
-0.029766347 0.034234829 0.15038049
-0.031311765 0.035368308 0.15095237
-0.032857187 0.036501788 0.15152425
-0.034402609 0.037635267 0.15209614
-0.035948031 0.038768746 0.15266801
-0.037493449 0.039902225 0.15323989
-0.03903887 0.041035704 0.15381178
-0.040584292 0.042169183 0.15438366
-0.04212971 0.043302663 0.15495554
-0.043675132 0.044436142 0.15552741
-0.045220554 0.045569621 0.15609929
-0.046765972 0.0467031 0.15667118
-0.048311394 0.047836583 0.15724306
-0.049856812 0.048970059 0.15781493
-0.051402234 0.050103541 0.15838683
-0.052947655 0.051237021 0.1589587
-0.054493077 0.0523705 0.15953058
-0.056038495 0.053503979 0.16010246
-0.057583917 0.054637458 0.16067435
-0.059129335 0.055770937 0.16124623
-0.060674757 0.056904417 0.1618181
-0.062220179 0.058037896 0.16238999
-0.022315081 0.031077992 0.14879437
-0.023860503 0.032211471 0.14936624
-0.025405923 0.033344951 0.14993814
-0.026951343 0.03447843 0.15051001
-0.028496761 0.035611909 0.15108189
-0.030042183 0.036745388 0.15165377
-0.031587604 0.037878867 0.15222566
-0.033133022 0.039012346 0.15279754
-0.034678444 0.040145826 0.15336941
-0.036223866 0.041279305 0.1539413
-0.037769288 0.042412788 0.15451318
-0.039314706 0.043546267 0.15508506
-0.040860128 0.044679746 0.15565693
-0.042405546 0.045813225 0.15622881
-0.043950967 0.046946704 0.1568007
-0.045496389 0.048080184 0.15737258
-0.047041811 0.049213663 0.15794446
-0.048587229 0.050347142 0.15851635
-0.050132651 0.051480621 0.15908822
-0.051678069 0.0526141 0.1596601
-0.053223491 0.053747579 0.16023198
-0.054768912 0.054881059 0.16080387
-0.056314331 0.056014538 0.16137575
-0.057859752 0.057148017 0.16194762
-0.059405174 0.058281496 0.16251951
-0.060950596 0.059414975 0.16309139
-0.021045497 0.032455072 0.14949577
-0.022590918 0.033588551 0.15006766
-0.024136338 0.03472203 0.15063953
-0.025681758 0.035855509 0.15121141
-0.027227178 0.036988989 0.15178329
-0.0287726 0.038122468 0.15235518
-0.03031802 0.039255947 0.15292706
-0.03186344 0.040389426 0.15349893
-0.033408862 0.041522905 0.15407082
-0.03495428 0.042656384 0.1546427
-0.036499701 0.043789864 0.15521458
-0.038045123 0.044923343 0.15578645
-0.039590545 0.046056822 0.15635833
-0.041135963 0.047190301 0.15693022
-0.042681385 0.04832378 0.1575021
-0.044226803 0.049457259 0.15807398
-0.045772225 0.050590742 0.15864587
-0.047317646 0.051724218 0.15921775
-0.048863068 0.052857701 0.15978962
-0.050408486 0.05399118 0.1603615
-0.051953908 0.055124659 0.16093339
-0.053499326 0.056258138 0.16150527
-0.055044748 0.057391617 0.16207714
-0.05659017 0.058525097 0.16264904
-0.058135591 0.059658576 0.16322091
-0.059681013 0.060792055 0.16379279
-0.019775912 0.033832148 0.15019718
-0.021321334 0.034965631 0.15076905
-0.022866754 0.03609911 0.15134093
-0.024412176 0.037232589 0.15191281
-0.025957596 0.038366068 0.1524847
-0.027503014 0.039499547 0.15305658
-0.029048435 0.040633027 0.15362845
-0.030593855 0.041766506 0.15420035
-0.032139279 0.042899985 0.15477222
-0.033684697 0.044033464 0.1553441
-0.035230119 0.045166943 0.15591598
-0.036775537 0.046300422 0.15648785
-0.038320959 0.047433905 0.15705974
-0.03986638 0.048567384 0.15763162
-0.041411798 0.049700864 0.1582035
-0.04295722 0.050834343 0.15877539
-0.044502642 0.051967822 0.15934727
-0.04604806 0.053101301 0.15991914
-0.047593482 0.05423478 0.16049102
-0.049138904 0.05536826 0.16106291
-0.050684322 0.056501739 0.16163479
-0.052229743 0.057635218 0.16220666
-0.053775162 0.058768697 0.16277856
-0.055320583 0.059902176 0.16335043
-0.056866005 0.061035655 0.16392231
-0.058411427 0.062169135 0.16449419
-0.018506328 0.035209231 0.15089858
-0.020051749 0.03634271 0.15147045
-0.021597169 0.037476189 0.15204233
-0.023142591 0.038609669 0.15261422
-0.024688011 0.039743148 0.1531861
-0.026233431 0.040876627 0.15375797
-0.027778853 0.042010106 0.15432987
-0.029324271 0.043143585 0.15490174
-0.030869693 0.044277065 0.15547362
-0.032415114 0.045410544 0.1560455
-0.033960532 0.046544023 0.15661737
-0.035505954 0.047677502 0.15718926
-0.037051376 0.048810981 0.15776114
-0.038596794 0.04994446 0.15833302
-0.040142216 0.05107794 0.15890491
-0.041687638 0.052211419 0.15947679
-0.043233056 0.053344898 0.16004866
-0.044778477 0.054478377 0.16062054
-0.046323899 0.055611856 0.16119243
-0.047869317 0.056745339 0.16176431
-0.049414739 0.057878815 0.16233619
-0.050960161 0.059012298 0.16290808
-0.052505579 0.060145773 0.16347995
-0.054051001 0.061279256 0.16405183
-0.055596419 0.062412735 0.16462371
-0.05714184 0.063546211 0.1651956
-0.017236745 0.036586307 0.15159997
-0.018782167 0.03771979 0.15217185
-0.020327587 0.038853269 0.15274374
-0.021873007 0.039986748 0.15331562
-0.023418427 0.041120227 0.1538875
-0.024963848 0.042253707 0.15445939
-0.026509268 0.043387186 0.15503126
-0.028054688 0.044520665 0.15560314
-0.02960011 0.045654144 0.15617502
-0.031145528 0.046787623 0.15674689
-0.03269095 0.047921102 0.15731879
-0.034236372 0.049054582 0.15789066
-0.03578179 0.050188061 0.15846254
-0.037327211 0.05132154 0.15903443
-0.038872633 0.052455019 0.15960631
-0.040418051 0.053588502 0.16017818
-0.041963473 0.054721981 0.16075006
-0.043508895 0.05585546 0.16132195
-0.045054317 0.05698894 0.16189383
-0.046599735 0.058122419 0.16246571
-0.048145156 0.059255898 0.1630376
-0.049690574 0.060389377 0.16360947
-0.051235996 0.061522856 0.16418135
-0.052781418 0.062656336 0.16475323
-0.054326836 0.063789815 0.16532512
-0.055872258 0.064923294 0.165897
-0.01596716 0.03796339 0.15230137
-0.017512582 0.03909687 0.15287326
-0.019058002 0.040230349 0.15344514
-0.020603424 0.041363828 0.15401702
-0.022148842 0.042497307 0.15458891
-0.023694264 0.043630786 0.15516078
-0.025239686 0.044764265 0.15573266
-0.026785104 0.045897745 0.15630454
-0.028330524 0.047031224 0.15687642
-0.029875945 0.048164703 0.15744831
-0.031421367 0.049298182 0.15802018
-0.032966785 0.050431661 0.15859206
-0.034512207 0.05156514 0.15916395
-0.036057629 0.05269862 0.15973583
-0.037603047 0.053832099 0.16030771
-0.039148469 0.054965578 0.16087958
-0.04069389 0.056099057 0.16145147
-0.042239308 0.057232536 0.16202335
-0.04378473 0.058366016 0.16259523
-0.045330152 0.059499495 0.16316712
-0.04687557 0.060632974 0.163739
-0.048420992 0.061766457 0.16431087
-0.049966414 0.062899932 0.16488275
-0.051511832 0.064033419 0.16545464
-0.053057253 0.065166891 0.16602652
-0.054602675 0.066300377 0.16659839
-0.014697576 0.039340466 0.15300278
-0.016242998 0.040473949 0.15357466
-0.017788418 0.041607428 0.15414654
-0.019333838 0.042740908 0.15471843
-0.020879259 0.043874387 0.15529031
-0.022424679 0.045007866 0.15586218
-0.023970099 0.046141345 0.15643406
-0.025515521 0.047274824 0.15700594
-0.027060941 0.048408303 0.15757783
-0.028606359 0.049541783 0.1581497
-0.030151781 0.050675262 0.15872158
-0.031697202 0.051808741 0.15929347
-0.033242621 0.05294222 0.15986535
-0.034788042 0.054075699 0.16043723
-0.036333464 0.055209178 0.1610091
-0.037878886 0.056342661 0.16158099
-0.039424304 0.057476141 0.16215287
-0.040969726 0.05860962 0.16272475
-0.042515147 0.059743099 0.16329664
-0.044060566 0.060876578 0.16386852
-0.045605987 0.062010057 0.16444039
-0.047151409 0.063143536 0.16501227
-0.048696827 0.064277016 0.16558416
-0.050242249 0.065410495 0.16615604
-0.051787667 0.066543974 0.16672792
-0.053333089 0.067677453 0.16729979
-0.013427993 0.04071755 0.15370418
-0.014973415 0.041851029 0.15427606
-0.016518833 0.042984508 0.15484795
-0.018064255 0.044117987 0.15541983
-0.019609675 0.045251466 0.1559917
-0.021155095 0.046384946 0.15656358
-0.022700517 0.047518425 0.15713546
-0.024245936 0.048651904 0.15770735
-0.025791358 0.049785383 0.15827923
-0.027336776 0.050918862 0.1588511
-0.028882198 0.052052341 0.15942299
-0.030427618 0.053185821 0.15999487
-0.031973038 0.0543193 0.16056675
-0.03351846 0.055452779 0.16113862
-0.035063881 0.056586258 0.16171052
-0.036609299 0.057719737 0.16228239
-0.038154721 0.058853216 0.16285427
-0.039700143 0.059986696 0.16342616
-0.041245561 0.061120175 0.16399804
-0.042790983 0.062253654 0.16456991
-0.044336405 0.063387133 0.16514179
-0.045881823 0.064520612 0.16571368
-0.047427244 0.065654092 0.16628556
-0.048972666 0.066787571 0.16685744
-0.050518084 0.067921057 0.16742931
-0.052063506 0.069054529 0.1680012
-0.012158407 0.042094626 0.15440558
-0.013703829 0.043228108 0.15497747
-0.01524925 0.044361588 0.15554935
-0.01679467 0.045495067 0.15612122
-0.01834009 0.046628546 0.1566931
-0.019885512 0.047762025 0.15726499
-0.021430932 0.048895504 0.15783687
-0.022976352 0.050028984 0.15840875
-0.024521774 0.051162463 0.15898062
-0.026067194 0.052295942 0.15955251
-0.027612612 0.053429421 0.16012439
-0.029158033 0.0545629 0.16069627
-0.030703455 0.055696379 0.16126814
-0.032248873 0.056829859 0.16184004
-0.033794295 0.057963338 0.16241191
-0.035339717 0.059096821 0.16298379
-0.036885135 0.0602303 0.16355568
-0.038430557 0.061363779 0.16412756
-0.039975978 0.062497258 0.16469944
-0.041521396 0.063630737 0.16527131
-0.043066818 0.064764217 0.1658432
-0.04461224 0.065897696 0.16641508
-0.046157658 0.067031175 0.16698696
-0.04770308 0.068164654 0.16755883
-0.049248502 0.069298133 0.16813073
-0.050793923 0.070431612 0.1687026
-0.010888822 0.043471705 0.15510699
-0.012434246 0.044605188 0.15567887
-0.013979666 0.045738667 0.15625075
-0.015525086 0.046872146 0.15682262
-0.017070508 0.048005626 0.1573945
-0.018615928 0.049139105 0.15796639
-0.020161347 0.050272584 0.15853827
-0.021706769 0.051406063 0.15911014
-0.023252189 0.052539542 0.15968204
-0.024797609 0.053673021 0.16025391
-0.026343031 0.054806501 0.16082579
-0.027888451 0.05593998 0.16139767
-0.029433871 0.057073459 0.16196956
-0.030979291 0.058206938 0.16254143
-0.032524712 0.059340417 0.16311331
-0.03407013 0.060473897 0.1636852
-0.035615552 0.061607376 0.16425708
-0.037160974 0.062740855 0.16482896
-0.038706396 0.063874334 0.16540083
-0.040251814 0.065007813 0.16597272
-0.041797236 0.066141292 0.1665446
-0.043342657 0.067274772 0.16711648
-0.044888075 0.068408251 0.16768835
-0.046433497 0.06954173 0.16826025
-0.047978915 0.070675209 0.16883212
-0.049524337 0.071808696 0.169404
-0.009619236 0.044848785 0.15580839
-0.011164661 0.045982264 0.15638027
-0.012710081 0.047115743 0.15695214
-0.014255503 0.048249226 0.15752402
-0.015800921 0.049382702 0.15809591
-0.017346343 0.050516184 0.15866779
-0.018891765 0.05164966 0.15923966
-0.020437183 0.052783143 0.15981156
-0.021982605 0.053916622 0.16038343
-0.023528025 0.055050101 0.16095531
-0.025073446 0.05618358 0.16152719
-0.026618866 0.057317059 0.16209908
-0.028164286 0.058450539 0.16267096
-0.029709706 0.059584018 0.16324283
-0.031255126 0.060717497 0.16381472
-0.032800548 0.061850976 0.1643866
-0.03434597 0.062984452 0.16495848
-0.035891388 0.064117938 0.16553035
-0.037436809 0.06525141 0.16610225
-0.038982231 0.066384897 0.16667412
-0.040527649 0.067518368 0.167246
-0.042073071 0.068651855 0.16781788
-0.043618493 0.069785327 0.16838977
-0.045163911 0.070918813 0.16896164
-0.046709333 0.072052293 0.16953352
-0.048254754 0.073185772 0.1701054
-0.0083496533 0.046225864 0.15650979
-0.0098950751 0.047359347 0.15708166
-0.011440499 0.048492827 0.15765354
-0.012985919 0.049626306 0.15822543
-0.014531339 0.050759785 0.15879731
-0.01607676 0.051893264 0.15936919
-0.01762218 0.053026743 0.15994108
-0.0191676 0.054160222 0.16051295
-0.020713022 0.055293702 0.16108483
-0.022258442 0.056427181 0.16165671
-0.023803862 0.05756066 0.1622286
-0.025349284 0.058694139 0.16280048
-0.026894704 0.059827618 0.16337235
-0.028440122 0.060961097 0.16394424
-0.029985543 0.062094577 0.16451612
-0.031530965 0.063228056 0.165088
-0.033076383 0.064361535 0.16565987
-0.034621805 0.065495014 0.16623177
-0.036167227 0.066628493 0.16680364
-0.037712645 0.067761973 0.16737552
-0.039258067 0.068895452 0.1679474
-0.040803488 0.070028931 0.16851929
-0.042348906 0.07116241 0.16909117
-0.043894328 0.072295889 0.16966304
-0.04543975 0.073429368 0.17023492
-0.046985172 0.074562848 0.17080681
-0.0070800707 0.047602944 0.15721118
-0.0086254925 0.048736423 0.15778308
-0.010170911 0.049869902 0.15835495
-0.011716334 0.051003385 0.15892683
-0.013261752 0.052136861 0.15949871
-0.014807174 0.053270344 0.1600706
-0.016352596 0.054403819 0.16064247
-0.017898014 0.055537302 0.16121435
-0.019443436 0.056670781 0.16178623
-0.020988856 0.05780426 0.16235812
-0.022534277 0.05893774 0.16293
-0.024079697 0.060071219 0.16350187
-0.025625117 0.061204698 0.16407377
-0.027170537 0.062338177 0.16464564
-0.028715957 0.06347166 0.16521752
-0.030261379 0.064605132 0.1657894
-0.031806801 0.065738618 0.16636129
-0.033352219 0.06687209 0.16693316
-0.03489764 0.068005577 0.16750504
-0.036443062 0.069139056 0.16807692
-0.03798848 0.070272535 0.16864881
-0.039533902 0.071406014 0.16922069
-0.041079324 0.072539493 0.16979256
-0.042624742 0.073672973 0.17036444
-0.044170164 0.074806452 0.17093633
-0.045715585 0.075939931 0.17150821
-0.038823422 0.012270955 0.14145973
-0.03882717 0.011365954 0.14324331
-0.038830917 0.010460954 0.14502689
-0.038834665 0.0095559526 0.14681046
-0.038838416 0.0086509511 0.14859405
-0.038842164 0.0077459496 0.15037762
-0.038845912 0.006840948 0.1521612
-0.038849659 0.0059359483 0.15394478
-0.038853407 0.0050309468 0.15572836
-0.038857155 0.0041259453 0.15751193
-0.038860902 0.0032209437 0.15929551
-0.03886465 0.0023159422 0.16107909
-0.038868401 0.0014109425 0.16286267
-0.038872149 0.00050593913 0.16464625
-0.038875896 -0.00039906055 0.16642983
-0.038879644 -0.0013040602 0.16821341
-0.038883392 -0.0022090636 0.16999699
-0.038887139 -0.0031140633 0.17178057
-0.038890887 -0.0040190667 0.17356415
-0.038894638 -0.0049240664 0.17534773
-0.038898386 -0.005829066 0.17713131
-0.038902134 -0.0067340694 0.17891489
-0.038905881 -0.0076390691 0.18069847
-0.038909629 -0.0085440725 0.18248205
-0.038913377 -0.0094490722 0.18426563
-0.037553836 0.013648035 0.14216113
-0.037557583 0.012743033 0.14394471
-0.037561335 0.011838034 0.14572829
-0.037565082 0.010933032 0.14751187
-0.03756883 0.010028031 0.14929545
-0.037572578 0.0091230292 0.15107903
-0.037576325 0.0082180277 0.15286261
-0.037580073 0.007313028 0.15464619
-0.037583821 0.0064080264 0.15642977
-0.037587568 0.0055030249 0.15821335
-0.037591316 0.0045980234 0.15999693
-0.037595067 0.0036930218 0.16178051
-0.037598815 0.0027880222 0.16356409
-0.037602562 0.0018830188 0.16534767
-0.03760631 0.00097801909 0.16713123
-0.037610058 7.3019415e-05 0.16891481
-0.037613805 -0.00083198398 0.17069839
-0.037617557 -0.0017369837 0.17248197
-0.037621304 -0.0026419871 0.17426555
-0.037625052 -0.0035469867 0.17604913
-0.0376288 -0.0044519901 0.17783271
-0.037632547 -0.0053569898 0.17961629
-0.037636295 -0.0062619895 0.18139987
-0.037640043 -0.0071669891 0.18318345
-0.03764379 -0.0080719925 0.18496703
-0.036284253 0.015025115 0.14286253
-0.036288001 0.014120113 0.14464611
-0.036291748 0.013215113 0.14642969
-0.036295496 0.012310112 0.14821327
-0.036299244 0.01140511 0.14999685
-0.036302995 0.010500109 0.15178043
-0.036306743 0.0095951073 0.15356401
-0.03631049 0.0086901076 0.15534759
-0.036314238 0.0077851061 0.15713117
-0.036317986 0.0068801045 0.15891474
-0.036321733 0.005975103 0.16069832
-0.036325481 0.0050701015 0.1624819
-0.036329232 0.0041651018 0.16426548
-0.03633298 0.0032601003 0.16604906
-0.036336727 0.0023550987 0.16783264
-0.036340475 0.0014500991 0.16961622
-0.036344223 0.00054509565 0.1713998
-0.03634797 -0.00035990402 0.17318338
-0.036351718 -0.0012649074 0.17496696
-0.036355466 -0.0021699071 0.17675054
-0.036359217 -0.0030749068 0.17853412
-0.036362965 -0.0039799102 0.1803177
-0.036366712 -0.0048849098 0.18210128
-0.03637046 -0.0057899132 0.18388486
-0.036374208 -0.0066949129 0.18566844
-0.035014667 0.016402194 0.14356393
-0.035018418 0.015497193 0.14534751
-0.035022166 0.014592193 0.14713109
-0.035025913 0.013687192 0.14891466
-0.035029661 0.01278219 0.15069824
-0.035033409 0.011877188 0.15248182
-0.035037156 0.010972187 0.1542654
-0.035040904 0.010067187 0.15604898
-0.035044655 0.0091621857 0.15783256
-0.035048403 0.0082571842 0.15961614
-0.03505215 0.0073521826 0.16139972
-0.035055898 0.0064471811 0.1631833
-0.035059646 0.0055421814 0.16496688
-0.035063393 0.0046371799 0.16675046
-0.035067141 0.0037321784 0.16853404
-0.035070889 0.0028271768 0.17031762
-0.03507464 0.0019221753 0.1721012
-0.035078388 0.0010171756 0.17388478
-0.035082135 0.00011217222 0.17566836
-0.035085883 -0.00079282746 0.17745194
-0.035089631 -0.0016978309 0.17923552
-0.035093378 -0.0026028305 0.1810191
-0.035097126 -0.0035078302 0.18280268
-0.035100877 -0.0044128299 0.18458626
-0.035104625 -0.0053178333 0.18636984
-0.033745084 0.017779274 0.14426532
-0.033748832 0.016874272 0.1460489
-0.033752583 0.015969273 0.14783248
-0.033756331 0.015064271 0.14961606
-0.033760078 0.01415927 0.15139964
-0.033763826 0.013254268 0.15318322
-0.033767574 0.012349267 0.1549668
-0.033771321 0.011444267 0.15675038
-0.033775069 0.010539265 0.15853396
-0.033778816 0.0096342638 0.16031754
-0.033782564 0.0087292623 0.16210112
-0.033786315 0.0078242607 0.1638847
-0.033790063 0.0069192611 0.16566828
-0.033793811 0.0060142595 0.16745186
-0.033797558 0.005109258 0.16923544
-0.033801306 0.0042042565 0.17101902
-0.033805054 0.0032992549 0.1728026
-0.033808805 0.0023942553 0.17458618
-0.033812553 0.0014892519 0.17636976
-0.0338163 0.00058425218 0.17815334
-0.033820048 -0.00032074749 0.17993692
-0.033823796 -0.0012257509 0.1817205
-0.033827543 -0.0021307506 0.18350407
-0.033831291 -0.003035754 0.18528765
-0.033835039 -0.0039407536 0.18707123
-0.032475501 0.019156354 0.14496674
-0.032479249 0.018251352 0.14675032
-0.032482997 0.017346352 0.1485339
-0.032486744 0.016441351 0.15031748
-0.032490492 0.015536349 0.15210105
-0.03249424 0.014631348 0.15388463
-0.032497987 0.013726346 0.15566821
-0.032501739 0.012821347 0.15745179
-0.032505486 0.011916345 0.15923537
-0.032509234 0.011011343 0.16101895
-0.032512981 0.010106342 0.16280253
-0.032516729 0.0092013404 0.16458611
-0.032520477 0.0082963407 0.16636969
-0.032524228 0.0073913392 0.16815327
-0.032527976 0.0064863376 0.16993685
-0.032531723 0.0055813361 0.17172043
-0.032535471 0.0046763346 0.17350399
-0.032539219 0.0037713349 0.17528757
-0.032542966 0.0028663334 0.17707115
-0.032546714 0.0019613318 0.17885473
-0.032550462 0.0010563284 0.18063831
-0.032554209 0.00015132874 0.18242189
-0.032557961 -0.00075367093 0.18420547
-0.032561708 -0.0016586706 0.18598905
-0.032565456 -0.002563674 0.18777263
-0.031205917 0.020533433 0.14566813
-0.031209664 0.019628432 0.14745171
-0.031213414 0.018723432 0.14923529
-0.031217162 0.01781843 0.15101887
-0.031220909 0.016913429 0.15280245
-0.031224657 0.016008427 0.15458603
-0.031228404 0.015103426 0.15636961
-0.031232154 0.014198426 0.15815319
-0.031235902 0.013293425 0.15993677
-0.031239651 0.012388423 0.16172035
-0.031243399 0.011483422 0.16350393
-0.031247146 0.01057842 0.16528751
-0.031250894 0.0096734203 0.16707109
-0.031254642 0.0087684188 0.16885467
-0.031258389 0.0078634173 0.17063825
-0.031262137 0.0069584157 0.17242183
-0.031265885 0.0060534142 0.17420541
-0.031269636 0.0051484145 0.17598899
-0.031273384 0.004243413 0.17777257
-0.031277131 0.0033384115 0.17955615
-0.031280879 0.0024334099 0.18133973
-0.031284627 0.0015284084 0.18312331
-0.031288378 0.0006234087 0.18490689
-0.031292126 -0.00028159469 0.18669046
-0.031295873 -0.0011865944 0.18847404
-0.029936332 0.021910513 0.14636955
-0.02994008 0.021005511 0.14815311
-0.029943828 0.020100512 0.14993669
-0.029947575 0.01919551 0.15172027
-0.029951325 0.018290509 0.15350385
-0.029955074 0.017385507 0.15528743
-0.029958822 0.016480505 0.15707101
-0.029962569 0.015575506 0.15885459
-0.029966317 0.014670504 0.16063817
-0.029970065 0.013765503 0.16242175
-0.029973812 0.012860501 0.16420533
-0.029977562 0.0119555 0.16598891
-0.02998131 0.0110505 0.16777249
-0.029985059 0.010145498 0.16955607
-0.029988807 0.0092404969 0.17133965
-0.029992554 0.0083354954 0.17312323
-0.029996302 0.0074304938 0.17490681
-0.03000005 0.0065254942 0.17669038
-0.030003797 0.0056204926 0.17847396
-0.030007547 0.0047154911 0.18025754
-0.030011296 0.0038104896 0.18204112
-0.030015044 0.002905488 0.1838247
-0.030018792 0.0020004883 0.18560828
-0.030022539 0.0010954887 0.18739186
-0.030026287 0.00019048527 0.18917544
-0.028666748 0.023287592 0.14707094
-0.028670495 0.022382591 0.14885452
-0.028674245 0.021477591 0.1506381
-0.028677993 0.02057259 0.15242168
-0.02868174 0.019667588 0.15420526
-0.028685488 0.018762587 0.15598884
-0.028689235 0.017857585 0.15777242
-0.028692985 0.016952585 0.159556
-0.028696733 0.016047584 0.16133958
-0.028700482 0.015142582 0.16312316
-0.02870423 0.014237581 0.16490674
-0.028707977 0.013332579 0.1666903
-0.028711725 0.01242758 0.16847388
-0.028715473 0.011522578 0.17025746
-0.02871922 0.010617577 0.17204104
-0.02872297 0.009712575 0.17382462
-0.028726717 0.0088075735 0.1756082
-0.028730467 0.0079025738 0.17739178
-0.028734215 0.0069975723 0.17917536
-0.028737962 0.0060925707 0.18095894
-0.02874171 0.0051875692 0.18274252
-0.028745458 0.0042825677 0.1845261
-0.028749207 0.003377568 0.18630968
-0.028752955 0.0024725664 0.18809326
-0.028756704 0.0015675649 0.18987684
-0.027397165 0.024664672 0.14777234
-0.027400913 0.023759671 0.14955592
-0.027404662 0.022854671 0.1513395
-0.02740841 0.021949669 0.15312308
-0.027412158 0.021044668 0.15490666
-0.027415905 0.020139666 0.15669024
-0.027419653 0.019234665 0.15847382
-0.027423402 0.018329665 0.1602574
-0.02742715 0.017424664 0.16204098
-0.027430899 0.016519662 0.16382456
-0.027434647 0.01561466 0.16560814
-0.027438395 0.014709659 0.16739172
-0.027442142 0.013804659 0.1691753
-0.02744589 0.012899658 0.17095888
-0.027449638 0.011994656 0.17274246
-0.027453387 0.011089655 0.17452604
-0.027457135 0.010184653 0.17630962
-0.027460884 0.0092796534 0.17809319
-0.027464632 0.0083746519 0.17987677
-0.02746838 0.0074696504 0.18166035
-0.027472127 0.0065646488 0.18344393
-0.027475875 0.0056596473 0.1852275
-0.027479624 0.0047546476 0.18701108
-0.027483372 0.0038496461 0.18879466
-0.027487122 0.0029446445 0.19057824
-0.026127581 0.026041752 0.14847374
-0.026131328 0.02513675 0.15025732
-0.026135076 0.024231751 0.1520409
-0.026138825 0.023326749 0.15382448
-0.026142573 0.022421747 0.15560806
-0.026146321 0.021516746 0.15739164
-0.02615007 0.020611744 0.15917522
-0.026153818 0.019706745 0.1609588
-0.026157565 0.018801743 0.16274238
-0.026161313 0.017896742 0.16452596
-0.026165063 0.01699174 0.16630954
-0.02616881 0.016086739 0.16809312
-0.026172558 0.015181739 0.16987669
-0.026176305 0.014276737 0.17166027
-0.026180055 0.013371736 0.17344385
-0.026183803 0.012466734 0.17522743
-0.02618755 0.011561733 0.17701101
-0.026191298 0.010656733 0.17879459
-0.026195047 0.0097517315 0.18057817
-0.026198795 0.00884673 0.18236175
-0.026202543 0.0079417285 0.18414533
-0.026206292 0.0070367269 0.18592891
-0.02621004 0.0061317272 0.18771249
-0.026213787 0.0052267257 0.18949607
-0.026217535 0.0043217242 0.19127965
-0.024857996 0.027418831 0.14917514
-0.024861744 0.02651383 0.15095872
-0.024865491 0.02560883 0.1527423
-0.024869241 0.024703829 0.15452588
-0.024872988 0.023798827 0.15630946
-0.024876736 0.022893826 0.15809304
-0.024880486 0.021988824 0.15987661
-0.024884233 0.021083824 0.16166019
-0.024887981 0.020178823 0.16344377
-0.024891729 0.019273821 0.16522735
-0.024895478 0.01836882 0.16701093
-0.024899226 0.017463818 0.16879451
-0.024902973 0.016558819 0.17057809
-0.024906721 0.015653817 0.17236167
-0.02491047 0.014748815 0.17414525
-0.024914218 0.013843814 0.17592883
-0.024917966 0.012938812 0.17771241
-0.024921713 0.012033813 0.17949599
-0.024925463 0.011128811 0.18127957
-0.024929211 0.01022381 0.18306315
-0.024932958 0.0093188081 0.18484673
-0.024936708 0.0084138066 0.18663031
-0.024940455 0.0075088069 0.18841389
-0.024944203 0.0066038053 0.19019747
-0.024947951 0.0056988038 0.19198105
-0.023588412 0.028795909 0.14987655
-0.023592159 0.027890909 0.15166013
-0.023595907 0.026985908 0.15344371
-0.023599656 0.026080906 0.15522729
-0.023603404 0.025175907 0.15701087
-0.023607152 0.024270905 0.15879445
-0.023610901 0.023365904 0.16057803
-0.023614649 0.022460902 0.16236161
-0.023618396 0.021555901 0.16414519
-0.023622144 0.020650901 0.16592877
-0.023625894 0.019745898 0.16771235
-0.023629641 0.018840898 0.16949593
-0.023633389 0.017935896 0.1712795
-0.023637136 0.017030895 0.17306307
-0.023640886 0.016125895 0.17484665
-0.023644634 0.015220894 0.17663023
-0.023648381 0.014315892 0.17841381
-0.023652129 0.01341089 0.18019739
-0.023655878 0.012505889 0.18198097
-0.023659626 0.011600889 0.18376455
-0.023663374 0.010695886 0.18554813
-0.023667123 0.0097908862 0.18733171
-0.023670871 0.0088858847 0.18911529
-0.023674618 0.0079808831 0.19089887
-0.023678366 0.0070758834 0.19268245
-0.022318829 0.030172989 0.15057795
-0.022322576 0.029267989 0.15236153
-0.022326324 0.028362988 0.15414511
-0.022330074 0.027457986 0.15592869
-0.022333821 0.026552986 0.15771227
-0.022337569 0.025647985 0.15949585
-0.022341318 0.024742983 0.16127943
-0.022345066 0.023837982 0.163063
-0.022348814 0.02293298 0.16484658
-0.022352561 0.022027981 0.16663016
-0.022356311 0.021122977 0.16841374
-0.022360059 0.020217977 0.17019732
-0.022363806 0.019312976 0.1719809
-0.022367554 0.018407974 0.17376448
-0.022371303 0.017502975 0.17554806
-0.022375051 0.016597973 0.17733164
-0.022378799 0.015692972 0.17911522
-0.022382546 0.01478797 0.1808988
-0.022386296 0.013882969 0.18268238
-0.022390043 0.012977969 0.18446596
-0.022393791 0.012072966 0.18624954
-0.022397541 0.011167966 0.1880331
-0.022401288 0.010262964 0.18981668
-0.022405036 0.0093579628 0.19160026
-0.022408783 0.0084529631 0.19338384
-0.021049244 0.031550068 0.15127935
-0.021052992 0.030645069 0.15306292
-0.02105674 0.029740067 0.1548465
-0.021060489 0.028835066 0.15663008
-0.021064237 0.027930066 0.15841366
-0.021067984 0.027025064 0.16019724
-0.021071734 0.026120063 0.16198082
-0.021075482 0.025215061 0.1637644
-0.021079229 0.02431006 0.16554798
-0.021082977 0.02340506 0.16733156
-0.021086726 0.022500057 0.16911514
-0.021090474 0.021595057 0.17089872
-0.021094222 0.020690056 0.1726823
-0.021097969 0.019785054 0.17446588
-0.021101719 0.018880054 0.17624946
-0.021105466 0.017975051 0.17803304
-0.021109214 0.017070051 0.17981662
-0.021112962 0.01616505 0.1816002
-0.021116711 0.015260048 0.18338378
-0.021120459 0.014355049 0.18516736
-0.021124206 0.013450045 0.18695094
-0.021127956 0.012545045 0.18873452
-0.021131704 0.011640044 0.1905181
-0.021135451 0.010735042 0.19230168
-0.021139199 0.0098300427 0.19408526
-0.01977966 0.032927148 0.15198076
-0.019783407 0.032022148 0.15376434
-0.019787155 0.031117145 0.15554792
-0.019790905 0.030212145 0.1573315
-0.019794652 0.029307144 0.15911508
-0.0197984 0.028402142 0.16089866
-0.019802149 0.027497143 0.16268224
-0.019805897 0.026592139 0.16446581
-0.019809645 0.025687139 0.16624938
-0.019813392 0.024782138 0.16803296
-0.019817142 0.023877136 0.16981654
-0.019820889 0.022972137 0.17160012
-0.019824637 0.022067133 0.1733837
-0.019828385 0.021162134 0.17516728
-0.019832134 0.020257132 0.17695086
-0.019835882 0.019352131 0.17873444
-0.01983963 0.018447131 0.18051802
-0.019843377 0.017542128 0.1823016
-0.019847127 0.016637128 0.18408518
-0.019850874 0.015732126 0.18586875
-0.019854622 0.014827125 0.18765233
-0.019858371 0.013922125 0.18943591
-0.019862119 0.013017122 0.19121949
-0.019865867 0.012112122 0.19300307
-0.019869614 0.01120712 0.19478665
-0.018510075 0.034304228 0.15268216
-0.018513823 0.033399228 0.15446573
-0.018517571 0.032494225 0.15624931
-0.01852132 0.031589225 0.15803289
-0.018525068 0.030684223 0.15981647
-0.018528815 0.029779222 0.16160005
-0.018532565 0.028874222 0.16338363
-0.018536313 0.027969219 0.16516721
-0.01854006 0.027064219 0.16695079
-0.018543808 0.026159218 0.16873437
-0.018547557 0.025254216 0.17051795
-0.018551305 0.024349216 0.17230153
-0.018555053 0.023444213 0.17408511
-0.0185588 0.022539213 0.17586869
-0.01856255 0.021634212 0.17765227
-0.018566297 0.02072921 0.17943585
-0.018570045 0.019824211 0.18121943
-0.018573793 0.018919207 0.18300301
-0.018577542 0.018014207 0.18478659
-0.01858129 0.017109206 0.18657015
-0.018585037 0.016204204 0.18835375
-0.018588787 0.015299205 0.19013731
-0.018592535 0.014394201 0.19192089
-0.018596282 0.013489202 0.19370447
-0.01860003 0.0125842 0.19548805
-0.017240493 0.035681307 0.15338355
-0.01724424 0.034776308 0.15516713
-0.017247988 0.033871304 0.15695071
-0.017251737 0.032966305 0.15873429
-0.017255485 0.032061301 0.16051787
-0.017259233 0.031156301 0.16230145
-0.017262982 0.030251302 0.16408503
-0.01726673 0.029346298 0.16586861
-0.017270477 0.028441299 0.16765219
-0.017274225 0.027536297 0.16943577
-0.017277975 0.026631296 0.17121935
-0.017281722 0.025726296 0.17300293
-0.01728547 0.024821293 0.17478651
-0.017289218 0.023916293 0.17657009
-0.017292967 0.023011291 0.17835367
-0.017296715 0.02210629 0.18013725
-0.017300462 0.02120129 0.18192083
-0.01730421 0.020296287 0.18370441
-0.017307959 0.019391287 0.18548799
-0.017311707 0.018486286 0.18727157
-0.017315455 0.017581284 0.18905514
-0.017319204 0.016676284 0.19083872
-0.017322952 0.015771281 0.1926223
-0.0173267 0.014866281 0.19440588
-0.017330447 0.01396128 0.19618946
-0.015970908 0.037058387 0.15408495
-0.015974656 0.036153387 0.15586853
-0.015978403 0.035248384 0.15765211
-0.015982153 0.034343384 0.15943569
-0.015985901 0.033438385 0.16121927
-0.015989648 0.032533381 0.16300285
-0.015993398 0.031628381 0.16478643
-0.015997145 0.030723378 0.16657001
-0.016000893 0.029818378 0.16835359
-0.016004641 0.028913377 0.17013717
-0.01600839 0.028008375 0.17192075
-0.016012138 0.027103376 0.17370433
-0.016015885 0.026198372 0.17548791
-0.016019633 0.025293373 0.17727149
-0.016023383 0.024388371 0.17905506
-0.01602713 0.023483369 0.18083864
-0.016030878 0.02257837 0.18262222
-0.016034625 0.021673366 0.1844058
-0.016038375 0.020768367 0.18618938
-0.016042123 0.019863365 0.18797296
-0.01604587 0.018958364 0.18975654
-0.01604962 0.018053364 0.19154012
-0.016053367 0.017148361 0.1933237
-0.016057115 0.016243361 0.19510728
-0.016060863 0.015338359 0.19689086
-0.014701324 0.038435467 0.15478636
-0.014705071 0.037530467 0.15656994
-0.014708819 0.036625464 0.15835352
-0.014712568 0.035720464 0.16013709
-0.014716316 0.03481546 0.16192068
-0.014720064 0.033910461 0.16370426
-0.014723813 0.033005461 0.16548784
-0.014727561 0.032100458 0.16727142
-0.014731308 0.031195458 0.16905499
-0.014735056 0.030290456 0.17083856
-0.014738806 0.029385455 0.17262214
-0.014742553 0.028480455 0.17440572
-0.014746301 0.027575452 0.1761893
-0.014750049 0.026670452 0.17797288
-0.014753798 0.025765451 0.17975646
-0.014757546 0.024860449 0.18154004
-0.014761293 0.023955449 0.18332362
-0.014765041 0.023050446 0.1851072
-0.01476879 0.022145446 0.18689078
-0.014772538 0.021240445 0.18867436
-0.014776286 0.020335443 0.19045794
-0.014780035 0.019430444 0.19224152
-0.014783783 0.01852544 0.1940251
-0.014787531 0.017620441 0.19580868
-0.014791278 0.016715439 0.19759226
-0.013431741 0.039812546 0.15548776
-0.013435489 0.038907547 0.15727134
-0.013439236 0.038002543 0.15905492
-0.013442986 0.037097543 0.1608385
-0.013446733 0.036192544 0.16262208
-0.013450481 0.03528754 0.16440566
-0.013454231 0.034382541 0.16618924
-0.013457978 0.033477537 0.16797282
-0.013461726 0.032572538 0.1697564
-0.013465473 0.031667538 0.17153998
-0.013469223 0.030762535 0.17332356
-0.013472971 0.029857533 0.17510714
-0.013476718 0.028952532 0.17689072
-0.013480466 0.028047532 0.1786743
-0.013484215 0.02714253 0.18045788
-0.013487963 0.026237529 0.18224145
-0.013491711 0.025332529 0.18402503
-0.013495458 0.024427526 0.18580861
-0.013499208 0.023522526 0.18759219
-0.013502955 0.022617524 0.18937576
-0.013506703 0.021712523 0.19115935
-0.013510453 0.020807523 0.19294292
-0.0135142 0.01990252 0.1947265
-0.013517948 0.01899752 0.19651008
-0.013521696 0.018092519 0.19829366
-0.012162155 0.041189626 0.15618916
-0.012165902 0.040284626 0.15797274
-0.01216965 0.039379623 0.15975632
-0.012173399 0.038474623 0.1615399
-0.012177147 0.03756962 0.16332348
-0.012180895 0.03666462 0.16510706
-0.012184644 0.03575962 0.16689064
-0.012188392 0.034854617 0.16867422
-0.012192139 0.033949617 0.1704578
-0.012195887 0.033044614 0.17224137
-0.012199637 0.032139614 0.17402495
-0.012203384 0.031234613 0.17580853
-0.012207132 0.030329613 0.17759211
-0.012210879 0.029424611 0.17937569
-0.012214629 0.02851961 0.18115927
-0.012218377 0.027614608 0.18294285
-0.012222124 0.026709609 0.18472643
-0.012225872 0.025804605 0.18651001
-0.012229621 0.024899606 0.18829359
-0.012233369 0.023994604 0.19007717
-0.012237117 0.023089603 0.19186075
-0.012240866 0.022184603 0.19364433
-0.012244614 0.0212796 0.19542791
-0.012248361 0.0203746 0.19721149
-0.012252109 0.019469598 0.19899507
-0.01089257 0.042566705 0.15689057
-0.010896321 0.041661702 0.15867415
-0.010900069 0.040756702 0.16045773
-0.010903817 0.039851703 0.16224129
-0.010907564 0.038946699 0.16402487
-0.010911312 0.0380417 0.16580845
-0.01091506 0.037136696 0.16759203
-0.010918807 0.036231697 0.16937561
-0.010922559 0.035326697 0.17115919
-0.010926306 0.034421694 0.17294277
-0.010930054 0.033516694 0.17472635
-0.010933802 0.03261169 0.17650993
-0.010937549 0.031706691 0.17829351
-0.010941297 0.030801689 0.18007709
-0.010945044 0.029896688 0.18186067
-0.010948792 0.028991688 0.18364425
-0.010952543 0.028086687 0.18542783
-0.010956291 0.027181685 0.18721141
-0.010960039 0.026276683 0.18899499
-0.010963786 0.025371682 0.19077857
-0.010967534 0.024466682 0.19256215
-0.010971282 0.023561681 0.19434573
-0.010975029 0.022656679 0.19612931
-0.010978781 0.021751679 0.19791289
-0.010982528 0.020846676 0.19969647
-0.0096229836 0.043943785 0.15759197
-0.009626735 0.043038785 0.15937555
-0.0096304826 0.042133782 0.16115913
-0.0096342303 0.041228782 0.16294271
-0.0096379779 0.040323779 0.16472629
-0.0096417256 0.039418779 0.16650987
-0.0096454732 0.03851378 0.16829345
-0.0096492209 0.037608776 0.17007703
-0.0096529722 0.036703777 0.17186061
-0.0096567199 0.035798773 0.17364419
-0.0096604675 0.034893773 0.17542776
-0.0096642151 0.03398877 0.17721134
-0.0096679628 0.03308377 0.17899491
-0.0096717104 0.032178771 0.18077849
-0.0096754581 0.031273767 0.18256207
-0.0096792057 0.030368768 0.18434565
-0.0096829571 0.029463766 0.18612923
-0.0096867047 0.028558765 0.18791281
-0.0096904524 0.027653763 0.18969639
-0.0096942 0.026748762 0.19147997
-0.0096979477 0.025843762 0.19326355
-0.0097016953 0.02493876 0.19504713
-0.0097054429 0.024033759 0.1968307
-0.0097091943 0.023128759 0.19861428
-0.0097129419 0.022223756 0.20039786
-0.008353401 0.045320865 0.15829337
-0.0083571523 0.044415861 0.16007695
-0.0083609 0.043510862 0.16186053
-0.0083646476 0.042605862 0.16364411
-0.0083683953 0.041700859 0.16542768
-0.0083721429 0.040795859 0.16721126
-0.0083758906 0.039890856 0.16899484
-0.0083796382 0.038985856 0.17077842
-0.0083833896 0.038080856 0.172562
-0.0083871372 0.037175853 0.17434558
-0.0083908848 0.036270853 0.17612916
-0.0083946325 0.03536585 0.17791274
-0.0083983801 0.03446085 0.17969632
-0.0084021278 0.03355585 0.1814799
-0.0084058754 0.032650847 0.18326348
-0.0084096231 0.031745847 0.18504706
-0.0084133744 0.030840846 0.18683064
-0.0084171221 0.029935844 0.18861422
-0.0084208697 0.029030843 0.1903978
-0.0084246174 0.028125841 0.19218138
-0.008428365 0.027220841 0.19396496
-0.0084321126 0.02631584 0.19574854
-0.0084358603 0.025410838 0.19753212
-0.0084396116 0.024505839 0.1993157
-0.0084433593 0.023600835 0.20109928
-0.0070838183 0.046697944 0.15899476
-0.0070875697 0.045792945 0.16077834
-0.0070913173 0.044887941 0.16256192
-0.007095065 0.043982942 0.1643455
-0.0070988126 0.043077938 0.16612908
-0.0071025603 0.042172939 0.16791266
-0.0071063079 0.041267939 0.16969624
-0.0071100555 0.040362936 0.17147982
-0.0071138069 0.039457936 0.1732634
-0.0071175545 0.038552932 0.17504698
-0.0071213022 0.037647933 0.17683056
-0.0071250498 0.036742929 0.17861414
-0.0071287975 0.03583793 0.18039772
-0.0071325451 0.03493293 0.1821813
-0.0071362928 0.034027927 0.18396488
-0.0071400404 0.033122927 0.18574846
-0.0071437918 0.032217927 0.18753204
-0.0071475394 0.031312924 0.18931562
-0.007151287 0.030407922 0.1910992
-0.0071550347 0.029502921 0.19288278
-0.0071587823 0.028597921 0.19466636
-0.00716253 0.02769292 0.19644994
-0.0071662776 0.026787918 0.19823352
-0.007170029 0.025882918 0.20001709
-0.0071737766 0.024977915 0.20180067
-0.040368844 0.013404436 0.14203161
-0.040372591 0.012499437 0.14381519
-0.040376339 0.011594433 0.14559877
-0.040380087 0.010689434 0.14738235
-0.040383838 0.0097844321 0.14916593
-0.040387586 0.0088794306 0.15094951
-0.040391333 0.0079744309 0.15273309
-0.040395081 0.0070694275 0.15451667
-0.040398829 0.0061644278 0.15630025
-0.040402576 0.0052594263 0.15808383
-0.040406324 0.0043544248 0.15986741
-0.040410072 0.0034494232 0.16165099
-0.040413823 0.0025444236 0.16343457
-0.040417571 0.001639422 0.16521814
-0.040421318 0.00073441863 0.16700171
-0.040425066 -0.00017058104 0.16878529
-0.040428814 -0.0010755807 0.17056887
-0.040432561 -0.0019805841 0.17235245
-0.040436309 -0.0028855838 0.17413603
-0.04044006 -0.0037905872 0.17591961
-0.040443808 -0.0046955869 0.17770319
-0.040447555 -0.0056005865 0.17948677
-0.040451303 -0.0065055899 0.18127035
-0.040455051 -0.0074105896 0.18305393
-0.040458798 -0.008315593 0.18483751
-0.041914262 0.014537916 0.14260349
-0.041918013 0.013632916 0.14438707
-0.041921761 0.012727913 0.14617065
-0.041925509 0.011822913 0.14795423
-0.041929256 0.010917911 0.14973781
-0.041933004 0.01001291 0.15152138
-0.041936751 0.0091079101 0.15330496
-0.041940499 0.0082029067 0.15508854
-0.04194425 0.007297907 0.15687212
-0.041947998 0.0063929055 0.1586557
-0.041951746 0.005487904 0.16043928
-0.041955493 0.0045829024 0.16222286
-0.041959241 0.0036779027 0.16400644
-0.041962989 0.0027729012 0.16579002
-0.041966736 0.0018678978 0.1675736
-0.041970484 0.00096289814 0.16935718
-0.041974235 5.7898462e-05 0.17114076
-0.041977983 -0.00084710494 0.17292434
-0.041981731 -0.0017521046 0.17470792
-0.041985478 -0.002657108 0.1764915
-0.041989226 -0.0035621077 0.17827508
-0.041992974 -0.0044671074 0.18005866
-0.041996721 -0.0053721108 0.18184224
-0.042000473 -0.0062771104 0.18362582
-0.04200422 -0.0071821138 0.1854094
-0.043459684 0.015671397 0.14317536
-0.043463431 0.014766395 0.14495894
-0.043467179 0.013861395 0.14674252
-0.04347093 0.012956394 0.1485261
-0.043474678 0.012051392 0.15030968
-0.043478426 0.011146391 0.15209326
-0.043482173 0.010241389 0.15387684
-0.043485921 0.0093363896 0.15566042
-0.043489669 0.0084313881 0.157444
-0.043493416 0.0075263865 0.15922758
-0.043497168 0.006621385 0.16101116
-0.043500915 0.0057163835 0.16279474
-0.043504663 0.0048113838 0.16457832
-0.04350841 0.0039063822 0.1663619
-0.043512158 0.0030013807 0.16814548
-0.043515906 0.0020963792 0.16992906
-0.043519653 0.0011913776 0.17171264
-0.043523401 0.00028637797 0.17349622
-0.043527152 -0.00061862543 0.1752798
-0.0435309 -0.0015236251 0.17706338
-0.043534648 -0.0024286285 0.17884696
-0.043538395 -0.0033336282 0.18063053
-0.043542143 -0.0042386279 0.18241411
-0.043545891 -0.0051436275 0.18419769
-0.043549638 -0.0060486309 0.18598127
-0.045005105 0.016804874 0.14374724
-0.045008853 0.015899874 0.14553082
-0.045012601 0.014994871 0.1473144
-0.045016348 0.014089871 0.14909798
-0.045020096 0.01318487 0.15088156
-0.045023844 0.012279868 0.15266514
-0.045027591 0.011374868 0.15444872
-0.045031343 0.010469865 0.1562323
-0.04503509 0.0095648654 0.15801588
-0.045038838 0.0086598638 0.15979946
-0.045042586 0.0077548623 0.16158304
-0.045046333 0.0068498608 0.16336662
-0.045050081 0.0059448611 0.1651502
-0.045053829 0.0050398596 0.16693377
-0.04505758 0.004134858 0.16871735
-0.045061328 0.0032298565 0.17050093
-0.045065075 0.0023248568 0.17228451
-0.045068823 0.0014198534 0.17406809
-0.04507257 0.00051485375 0.17585167
-0.045076318 -0.00039014965 0.17763525
-0.045080066 -0.0012951493 0.17941883
-0.045083813 -0.002200149 0.18120241
-0.045087565 -0.0031051524 0.18298599
-0.045091312 -0.0040101521 0.18476957
-0.04509506 -0.0049151555 0.18655315
-0.046550527 0.017938355 0.14431913
-0.046554275 0.017033353 0.14610271
-0.046558022 0.016128354 0.14788629
-0.04656177 0.015223352 0.14966987
-0.046565518 0.014318351 0.15145345
-0.046569265 0.013413349 0.15323703
-0.046573013 0.012508348 0.15502061
-0.046576761 0.011603348 0.15680419
-0.046580508 0.010698346 0.15858777
-0.04658426 0.0097933449 0.16037135
-0.046588007 0.0088883433 0.16215493
-0.046591755 0.0079833418 0.16393851
-0.046595503 0.0070783421 0.16572209
-0.04659925 0.0061733406 0.16750565
-0.046602998 0.0052683391 0.16928923
-0.046606749 0.0043633375 0.17107281
-0.046610497 0.003458336 0.17285639
-0.046614245 0.0025533363 0.17463997
-0.046617992 0.0016483329 0.17642355
-0.04662174 0.00074333325 0.17820713
-0.046625488 -0.00016167015 0.17999071
-0.046629235 -0.0010666698 0.18177429
-0.046632983 -0.0019716695 0.18355787
-0.04663673 -0.0028766692 0.18534145
-0.046640482 -0.0037816726 0.18712503
-0.048095945 0.019071832 0.14489101
-0.048099693 0.018166833 0.14667459
-0.048103444 0.017261829 0.14845817
-0.048107192 0.01635683 0.15024175
-0.04811094 0.015451828 0.15202533
-0.048114687 0.014546826 0.15380891
-0.048118435 0.013641827 0.15559249
-0.048122182 0.012736823 0.15737607
-0.04812593 0.011831824 0.15915965
-0.048129678 0.010926822 0.16094323
-0.048133425 0.010021821 0.1627268
-0.048137177 0.0091168191 0.16451038
-0.048140924 0.0082118195 0.16629396
-0.048144672 0.0073068179 0.16807754
-0.04814842 0.0064018164 0.16986112
-0.048152167 0.0054968148 0.1716447
-0.048155915 0.0045918152 0.17342828
-0.048159666 0.0036868118 0.17521186
-0.048163414 0.0027818121 0.17699544
-0.048167162 0.0018768087 0.17877902
-0.048170909 0.00097180903 0.1805626
-0.048174657 6.6809356e-05 0.18234618
-0.048178405 -0.00083819404 0.18412976
-0.048182152 -0.0017431937 0.18591334
-0.0481859 -0.0026481971 0.18769692
-0.049641367 0.020205313 0.1454629
-0.049645115 0.019300312 0.14724647
-0.049648862 0.018395312 0.14903004
-0.04965261 0.017490311 0.15081362
-0.049656358 0.016585309 0.1525972
-0.049660105 0.015680308 0.15438078
-0.049663857 0.014775306 0.15616436
-0.049667604 0.013870306 0.15794794
-0.049671352 0.012965305 0.15973152
-0.0496751 0.012060303 0.1615151
-0.049678847 0.011155302 0.16329868
-0.049682595 0.0102503 0.16508226
-0.049686342 0.0093453005 0.16686584
-0.04969009 0.008440299 0.16864942
-0.049693841 0.0075352974 0.170433
-0.049697589 0.0066302959 0.17221658
-0.049701337 0.0057252944 0.17400016
-0.049705084 0.0048202947 0.17578374
-0.049708832 0.0039152931 0.17756732
-0.04971258 0.0030102916 0.1793509
-0.049716327 0.0021052901 0.18113448
-0.049720079 0.0012002885 0.18291806
-0.049723826 0.00029528886 0.18470164
-0.049727574 -0.00060971081 0.18648522
-0.049731322 -0.0015147142 0.1882688
-0.051186785 0.021338793 0.14603478
-0.051190533 0.020433791 0.14781836
-0.051194284 0.019528791 0.14960194
-0.051198032 0.01862379 0.15138552
-0.051201779 0.017718788 0.1531691
-0.051205527 0.016813787 0.15495268
-0.051209275 0.015908785 0.15673625
-0.051213026 0.015003785 0.15851983
-0.051216774 0.014098784 0.16030341
-0.051220521 0.013193782 0.16208699
-0.051224269 0.012288781 0.16387056
-0.051228017 0.011383779 0.16565414
-0.051231764 0.01047878 0.16743772
-0.051235512 0.0095737781 0.1692213
-0.05123926 0.0086687766 0.17100488
-0.051243007 0.0077637751 0.17278846
-0.051246755 0.0068587735 0.17457204
-0.051250506 0.0059537739 0.17635562
-0.051254254 0.0050487723 0.17813919
-0.051258001 0.0041437708 0.17992277
-0.051261749 0.0032387692 0.18170635
-0.051265497 0.0023337677 0.18348993
